0.09099320322275162 -0.08007632195949554 -0.007062735967338085
-0.12985433638095856 0.02679053135216236 0.00202120840549469
-0.11034233868122101 -0.061903804540634155 -0.1699291169643402
0.11610422283411026 -0.06483518332242966 -0.00051138736307621
-0.12629957497119904 0.027587927877902985 0.007063637021929026
-0.12905384600162506 -0.043272554874420166 0.16840051114559174
0.05128701403737068 -0.11210329830646515 -0.04711797833442688
0.05851355940103531 -0.11931388825178146 -0.06154453009366989
0.05360981076955795 -0.09130200743675232 0.013918694108724594
-0.08208246529102325 0.09581735730171204 -0.004273226484656334
0.07893522828817368 -0.06066535413265228 0.1662086844444275
-0.09158380329608917 -0.08486650884151459 0.3079124391078949
-0.04960182309150696 0.12091576308012009 -0.2933497130870819
0.024444125592708588 -0.1284637600183487 -0.003790285438299179
0.036834996193647385 -0.12602829933166504 0.05339263007044792
-0.12179915606975555 0.031298376619815826 0.026723666116595268
-0.09107119590044022 -0.07192416489124298 0.054506685584783554
0.06883303076028824 -0.10326523333787918 -0.01722288504242897
-0.07230228185653687 -0.08625427633523941 -0.07908134907484055
-0.08688491582870483 -0.07183776050806046 0.054611969739198685
-0.13284429907798767 0.018159491941332817 -0.0466422513127327
-0.13219010829925537 0.025041814893484116 0.10624568164348602
-0.12375026941299438 -0.021820858120918274 0.0668439120054245
0.05809004604816437 -0.11234457045793533 0.008128928020596504
-0.015323514118790627 -0.12514209747314453 0.005860918201506138
-0.13121280074119568 0.018466653302311897 -0.15390588343143463
-0.040601685643196106 -0.12796898186206818 0.32339510321617126
-0.039947234094142914 -0.10529673844575882 0.2963758707046509
-0.09277279675006866 0.01715291664004326 -0.37813663482666016
0.05502597987651825 -0.11253981292247772 -0.046160995960235596
-0.12375768274068832 0.05647478625178337 -0.15923337638378143
0.035162076354026794 -0.1112217903137207 -0.044015008956193924
-0.13112740218639374 0.0638330802321434 -0.002947930246591568
0.10926011949777603 -0.05972783640027046 -9.311363101005554e-05
-0.12301087379455566 0.10370136797428131 0.4076065421104431
0.11146645247936249 -0.06488299369812012 0.3022896647453308
-0.06747578084468842 0.12065793573856354 -0.1066841185092926
0.11359298974275589 -0.0627434253692627 -0.0009168675169348717
-0.06725578010082245 0.13469815254211426 -0.04512932896614075
-0.12725098431110382 0.021701287478208542 0.002750338986515999
0.03054133430123329 -0.10797949880361557 0.23144344985485077
-0.10279308259487152 -0.05722745507955551 -0.058998286724090576
-0.03529112786054611 0.09952704608440399 -0.39119860529899597
-0.11917133629322052 0.053773753345012665 0.008004529401659966
-0.12780161201953888 0.017079047858715057 0.03766259551048279
-0.020495902746915817 -0.12901073694229126 0.1364399790763855
-0.11989795416593552 0.07214464992284775 -0.05103974789381027
0.02219848707318306 -0.11446548998355865 0.010535437613725662
0.11241675168275833 -0.06668059527873993 -0.002500043250620365
-0.13102605938911438 0.023037686944007874 0.004242174327373505
0.08090145140886307 -0.08067435026168823 0.1974720060825348
0.014329683035612106 -0.13071508705615997 0.029148463159799576
-0.13155680894851685 0.02503237873315811 0.20756031572818756
-0.10075683146715164 -0.06849376857280731 -0.05467672273516655
-0.05889851599931717 0.09779176115989685 -0.20416352152824402
-0.07248756289482117 0.10287588834762573 0.023894093930721283
-0.021434403955936432 -0.12625765800476074 -0.03798326477408409
-0.13204780220985413 0.023387223482131958 0.11057808995246887
-0.09473980218172073 0.06327399611473083 -0.1573711335659027
-0.026760563254356384 -0.09051185846328735 -0.1370924711227417
-0.12257961183786392 -0.013298660516738892 0.08389633148908615
0.05244630575180054 -0.1122390478849411 -0.0005800230428576469
-0.022014956921339035 -0.10676490515470505 0.0341910757124424
-0.09600315988063812 0.07460276782512665 -0.21063022315502167
-0.13586342334747314 0.024896949529647827 0.0003910772502422333
-0.11640987545251846 -0.07507792115211487 0.30274227261543274
0.1089734435081482 -0.06281132251024246 -0.0016685668379068375
-0.09010288864374161 -0.07530255615711212 0.06611336767673492
0.10637059807777405 -0.05899086222052574 -0.16696247458457947
-0.017884880304336548 -0.03852413594722748 -0.51524817943573
0.08127143979072571 -0.08004862070083618 0.18205447494983673
0.11985978484153748 -0.06405904144048691 -0.13001209497451782
0.0482107475399971 -0.05289527773857117 -0.23679183423519135
-0.14110895991325378 -0.03592061251401901 0.41217514872550964
0.05080276355147362 -0.13147976994514465 -0.06370820850133896
0.04756259173154831 -0.11475168913602829 -0.04202445223927498
-0.1155802458524704 -0.039676982909440994 0.01583399437367916
-0.13087210059165955 -0.015884749591350555 0.07479055225849152
-0.007860667072236538 -0.1122664138674736 0.017871618270874023
0.06893826276063919 -0.10137209296226501 -0.0078511331230402
0.09718049317598343 -0.07031578570604324 -0.008240148425102234
-0.13144446909427643 0.016268212348222733 0.09189362078905106
0.09277484565973282 -0.06944002211093903 -0.006580673158168793
0.007332950830459595 -0.10945624858140945 0.4000491499900818
-0.11454717814922333 0.08310788124799728 0.4380342662334442
0.11205030232667923 -0.0665852501988411 -0.0037980990018695593
0.09790322184562683 -0.08769133687019348 0.06298108398914337
-0.129169300198555 -0.02442922443151474 0.05125529319047928
-0.0934920683503151 0.09548598527908325 -0.061504535377025604
0.030984848737716675 -0.1333041489124298 0.36823317408561707
0.013333357870578766 0.04651977866888046 -0.5473580360412598
0.0790884792804718 -0.09061522781848907 -0.022261660546064377
0.11720496416091919 -0.06297332048416138 -0.003146922215819359
-0.08572308719158173 0.013932690024375916 -0.34655705094337463
-0.11397276818752289 0.014397571794688702 0.01554599218070507
-0.0027064066380262375 -0.13529299199581146 0.3688856363296509
0.027197042480111122 -0.13391797244548798 -0.10976094752550125
0.04756356030702591 -0.08294929563999176 0.18876458704471588
0.024610742926597595 -0.12737035751342773 -0.0060327788814902306
0.11058532446622849 -0.0638917088508606 -0.008966904133558273
-0.11944148689508438 -0.049933597445487976 -0.13174565136432648
-0.055059075355529785 -0.11619315296411514 0.115290567278862
0.07831690460443497 -0.08245491981506348 0.33934155106544495
0.045523833483457565 -0.1216338574886322 0.014910471625626087
-0.11194761097431183 0.09270551800727844 0.23011988401412964
0.07897712290287018 -0.0999799445271492 -0.01718744821846485
-0.10146564245223999 -0.05897102504968643 -0.0644250214099884
-0.064333476126194 -0.09996520727872849 -0.13642898201942444
0.09665508568286896 -0.07714468985795975 0.048147108405828476
-0.048836108297109604 -0.09065470099449158 0.08103443682193756
0.10607656836509705 -0.06846220791339874 -0.0085715651512146
0.04304687678813934 -0.12663860619068146 0.3471667170524597
0.08397673815488815 -0.10512741655111313 0.15433545410633087
0.037059567868709564 -0.12102683633565903 -0.19115814566612244
0.1115712970495224 -0.059448886662721634 0.003200274659320712
-0.1277509331703186 0.03270191326737404 0.10220363736152649
0.04046490043401718 -0.11442911624908447 -0.039923109114170074
-0.05398557707667351 -0.09960412979125977 -0.18805105984210968
-0.10312864929437637 -0.004792644642293453 -0.1340027153491974
-0.13403885066509247 0.05114032328128815 0.14864136278629303
-0.04939045384526253 0.13370169699192047 0.040647394955158234
0.11148233711719513 -0.061439529061317444 0.005243889056146145
0.0486128106713295 -0.11135949194431305 -0.04998139664530754
0.07628610730171204 -0.07081897556781769 -0.2079220861196518
0.0667334794998169 -0.0907030701637268 0.1381956785917282
-0.09551472961902618 0.05792251229286194 -0.20435447990894318
-0.12505067884922028 0.03614930063486099 0.00022485572844743729
0.10654547065496445 -0.06804237514734268 -0.003262900747358799
-0.05095018818974495 -0.09130434691905975 0.1337885558605194
-0.13586895167827606 -0.033209096640348434 0.27404898405075073
0.02993176504969597 -0.11363440006971359 -0.19057947397232056
-0.10210293531417847 -0.06501743197441101 -0.035117775201797485
-0.03972412273287773 0.0456366091966629 -0.22804559767246246
-0.07536631077528 0.14468011260032654 0.42873892188072205
0.05413254350423813 -0.11691131442785263 -0.04859986901283264
0.10174079239368439 -0.08122922480106354 0.21253368258476257
-0.0923168957233429 -0.07416336238384247 0.054329946637153625
0.05151241272687912 -0.12547391653060913 0.4033380150794983
-0.12223097681999207 0.02474954165518284 0.11734345555305481
0.08179233223199844 -0.1016421690583229 0.19119450449943542
0.07114580273628235 -0.11543035507202148 0.043662190437316895
0.10548759251832962 -0.0636088103055954 0.0009578568860888481
-0.012703150510787964 -0.11493052542209625 -0.18926548957824707
-0.13008150458335876 0.02473570592701435 0.0029786061495542526
-0.057044867426157 0.051773544400930405 -0.4191121459007263
-0.09099675714969635 -0.06691800802946091 0.05650200694799423
0.11732222139835358 -0.03121258318424225 -0.09054894745349884
0.09502413123846054 -0.07803656905889511 -0.1476459950208664
-0.1284971535205841 0.06476825475692749 0.021336358040571213
-0.05839257314801216 -0.08593618124723434 -0.026575708761811256
-0.01901024580001831 -0.11782774329185486 0.11606205999851227
0.0419490784406662 -0.12158139050006866 -0.022927094250917435
-0.05385398864746094 0.12282099574804306 -0.12272416055202484
-0.11171209067106247 0.07272546738386154 0.18536962568759918
0.12445675581693649 -0.08031106740236282 -0.34668248891830444
0.10201440006494522 -0.08646760880947113 0.11656413972377777
-0.1307467222213745 0.017701072618365288 0.001287786290049553
-0.13188055157661438 0.022134363651275635 0.005157784093171358
-0.09391699731349945 -0.06440993398427963 -0.03224663436412811
0.09552556276321411 -0.09126918017864227 -0.14209270477294922
-0.12425496429204941 0.033045150339603424 -0.0759221613407135
0.007070329040288925 -0.11929646879434586 -0.04987042769789696
-0.11637217551469803 0.055840060114860535 0.0034424513578414917
-0.1302437037229538 0.01998569257557392 0.005221301689743996
-0.02186497673392296 -0.11719797551631927 -0.0633595883846283
0.04541337490081787 -0.11661481857299805 -0.03372092545032501
-0.09719149768352509 -0.05288729816675186 -0.05285831168293953
-0.0393868014216423 0.019845569506287575 -0.37882351875305176
0.06039111316204071 -0.09693910926580429 -0.0058395396918058395
-0.07737597078084946 -0.0984821543097496 0.2662070393562317
0.0674222856760025 -0.09815482795238495 0.12958185374736786
-0.06109181046485901 0.1305823177099228 -0.09766562283039093
0.11072951555252075 -0.06530211120843887 -0.0012818779796361923
-0.13280439376831055 0.03764553368091583 0.06480387598276138
0.09472967684268951 -0.06440134346485138 -0.004897836595773697
-0.09769761562347412 -0.07832717150449753 0.07000085711479187
0.10447736829519272 -0.09306003898382187 0.19600534439086914
0.05077745020389557 -0.11129970103502274 -0.04242885112762451
-0.11198986321687698 -0.03828180208802223 -0.04776374623179436
-0.11277280747890472 0.07592864334583282 -0.15629632771015167
0.02579919621348381 -0.11515522748231888 0.16919933259487152
-0.1192101389169693 -0.019740160554647446 0.04520047828555107
-0.0469205267727375 0.13126270473003387 0.07751286774873734
0.053104519844055176 -0.10230591893196106 -0.04964016005396843
0.12857119739055634 -0.06710623949766159 0.3517756760120392
-0.10461584478616714 -0.06954025477170944 0.0667828842997551
0.08121657371520996 -0.0907677561044693 -0.03441556543111801
0.042846474796533585 -0.0968322604894638 0.08412240445613861
-0.12448404729366302 0.05747739225625992 0.1791580617427826
-0.12674908339977264 0.019301218912005424 0.004126878455281258
0.11393226683139801 -0.06505229324102402 0.0002544596791267395
0.1015084832906723 -0.08448231220245361 0.3466135263442993
-0.11394363641738892 -0.04660351201891899 -0.04903943091630936
-0.057331524789333344 0.14150117337703705 0.2734834551811218
-0.12575437128543854 0.052485667169094086 0.008083772845566273
0.04471693933010101 -0.11377211660146713 0.18637563288211823
0.06642885506153107 -0.10396715998649597 0.28156471252441406
0.06419327855110168 -0.10518362373113632 -0.030059166252613068
-0.12545576691627502 0.06928831338882446 0.23251351714134216
-0.047091614454984665 -0.12419727444648743 0.014897540211677551
-0.08971638977527618 -0.07657033205032349 0.06220513582229614
0.11231883615255356 -0.06149889901280403 0.003350071609020233
0.0017537344247102737 -0.12268137186765671 0.06135563179850578
-0.1265297532081604 0.06117742508649826 0.13903993368148804
-0.06026403605937958 0.1187942773103714 -0.10861146450042725
0.10730402171611786 -0.08631730079650879 -0.08330128341913223
-0.11468207836151123 -0.0750388652086258 0.24509038031101227
-0.0619511641561985 -0.029230698943138123 -0.38971027731895447
0.1082223504781723 -0.06522916257381439 0.001246696338057518
-0.11757203191518784 -0.06422778964042664 0.08880610018968582
0.0882633700966835 -0.09366195648908615 -0.07467540353536606
-0.12107692658901215 -0.016833487898111343 0.08160492777824402
-0.08716926723718643 0.12662966549396515 0.28359290957450867
0.050216421484947205 -0.09525328874588013 0.040296994149684906
-0.08354164659976959 0.06786923110485077 -0.2862728536128998
-0.08385936170816422 0.10538295656442642 -0.011546589434146881
0.05663970857858658 -0.09772689640522003 -0.07240941375494003
0.06602943688631058 -0.10209943354129791 0.031884629279375076
0.0841914489865303 -0.061125099658966064 -0.3466395139694214
-0.12792344391345978 0.016266684979200363 0.014281947165727615
0.020081855356693268 -0.1213771402835846 -0.1253492832183838
-0.051446497440338135 0.13268150389194489 0.21844352781772614
-0.1183762177824974 -0.03570881113409996 -0.02501841075718403
0.08826155960559845 -0.08895546197891235 -0.17475861310958862
-0.11911401152610779 0.01431797444820404 0.08667829632759094
0.11959424614906311 -0.06382620334625244 -0.19246263802051544
0.09903118014335632 -0.07895569503307343 -0.3125225901603699
-0.13206519186496735 -0.019886214286088943 0.19497083127498627
-0.11336132884025574 -0.04600038751959801 -0.057776421308517456
-0.13165950775146484 0.026962578296661377 0.02000582590699196
-0.09248704463243484 -0.0701766237616539 0.06678248941898346
0.05705445259809494 -0.09375474601984024 0.03695864602923393
-0.05770120024681091 0.09891265630722046 0.07173972576856613
-0.12745749950408936 0.04185716062784195 0.10884569585323334
-0.10954932868480682 0.07509075105190277 -0.07303076982498169
0.10788164287805557 -0.0639040619134903 -0.0014277072623372078
-0.06757491081953049 -0.0941062793135643 -0.26979583501815796
0.09537504613399506 -0.057232700288295746 0.24499735236167908
-0.07530288398265839 0.07941216230392456 -0.21493591368198395
0.05536702275276184 -0.10449869930744171 -0.03444594517350197
-0.10558507591485977 -0.06868361681699753 0.11695747822523117
0.01710139587521553 -0.12238531559705734 0.15883900225162506
-0.12346047163009644 0.042113255709409714 0.06624685972929001
-0.07719452679157257 0.06406959891319275 -0.3642881512641907
-0.061876699328422546 0.12228654325008392 -0.12885013222694397
0.08680562674999237 -0.09376587718725204 -0.03228793293237686
-0.040432292968034744 0.1016092449426651 -0.20246823132038116
0.10256385058164597 -0.07486681640148163 0.04820793494582176
-0.09093107283115387 -0.1026412844657898 0.19505815207958221
-0.08705778419971466 0.08264759927988052 0.11680950969457626
-0.062441788613796234 0.12303399294614792 0.12588685750961304
-0.07156626135110855 0.1366584300994873 0.2569802403450012
-0.1267802119255066 0.024521857500076294 0.00039801702951081097
0.08592084050178528 -0.09914101660251617 -0.026876211166381836
-0.1309797763824463 -0.01685871183872223 0.08085998892784119
0.10844898223876953 -0.06831799447536469 -0.007280253805220127
0.052057232707738876 -0.12738573551177979 -0.11041012406349182
0.08821658790111542 -0.07887324690818787 -0.026616398245096207
-0.13066890835762024 0.008860057219862938 -0.05697255581617355
-0.08285681903362274 -0.06405742466449738 0.05662001296877861
0.0032903277315199375 -0.11549964547157288 0.02426828257739544
-0.1342254877090454 0.05928196385502815 0.14691200852394104
-0.11349914222955704 -0.04149993509054184 0.012422122061252594
-0.12177152931690216 0.06099628284573555 0.24289880692958832
-0.12510299682617188 0.018983740359544754 0.052744075655937195
-0.13306403160095215 0.017065508291125298 -0.031872496008872986
-0.08831910789012909 -0.07187466323375702 0.04759932681918144
0.05336242914199829 -0.1136782243847847 -0.034700650721788406
0.1161217913031578 -0.06374486535787582 0.004252987913787365
-0.13444805145263672 0.05448373034596443 -0.06765744090080261
0.10747212171554565 -0.06182485818862915 0.0012249872088432312
-0.10080619901418686 -0.07735186815261841 -0.13341721892356873
0.08470290154218674 -0.08221609890460968 -0.010111554525792599
-0.10192924737930298 0.029262693598866463 -0.22350111603736877
-0.12830425798892975 -0.0033556148409843445 -0.07002510875463486
-0.11747941374778748 -0.03403245657682419 -0.04544290900230408
0.07396040111780167 -0.11366747319698334 0.3560793697834015
-0.12082705646753311 -0.04677209258079529 -0.06145515665411949
-0.005169768817722797 -0.08984829485416412 -0.22035974264144897
0.044038206338882446 -0.11174602061510086 0.018147040158510208
-0.13071471452713013 0.03186412155628204 0.005582850426435471
0.10331621021032333 -0.07199738919734955 0.04905598983168602
-0.08620300889015198 -0.04980365186929703 -0.2880476415157318
-0.08528053760528564 0.0019480902701616287 -0.2096816748380661
-0.0380164198577404 -0.12987789511680603 0.24211663007736206
-0.12033926695585251 -0.045638881623744965 0.024523355066776276
-0.023182522505521774 -0.055844902992248535 -0.22219818830490112
-0.014299625530838966 -0.09999096393585205 -0.2614978849887848
-0.127858504652977 -0.0009536282159388065 -0.06930720806121826
-0.07726991176605225 0.10451461374759674 -0.055282458662986755
0.05615568533539772 -0.10966400057077408 -0.17535635828971863
-0.13455773890018463 0.015379264950752258 0.11563894897699356
0.09677660465240479 -0.08488590270280838 0.007961265742778778
-0.01907212659716606 -0.12247537076473236 0.03070647269487381
-0.13231927156448364 -0.015060754492878914 0.1664825677871704
0.10607974231243134 -0.06518010050058365 -0.007756957784295082
-0.11073478311300278 0.04552191495895386 0.006904035806655884
0.0505300797522068 -0.11503681540489197 -0.04742518812417984
0.026806319132447243 -0.10623876750469208 -0.13866442441940308
-0.1305062472820282 0.024192798882722855 0.011891230940818787
-0.1275985985994339 0.06434866040945053 0.19999605417251587
-0.14018721878528595 -0.042132213711738586 0.36302635073661804
-0.13014419376850128 0.022178057581186295 0.0018253559246659279
0.10471854358911514 -0.06171003729104996 -0.020390894263982773
0.06981614232063293 -0.018116936087608337 -0.4422847330570221
0.0965089499950409 -0.07975640147924423 -0.04186718910932541
0.05262863636016846 -0.1145925521850586 -0.04983058199286461
-0.008369159884750843 -0.10490106046199799 0.25718021392822266
0.08407104760408401 -0.09648443013429642 -0.1399257630109787
0.10794170200824738 -0.06508533656597137 2.559088170528412e-05
0.04811377078294754 -0.08972036093473434 -0.17404760420322418
0.07369641959667206 -0.08776450902223587 -0.05210517346858978
-0.11269659548997879 0.08669008314609528 0.10431364178657532
-0.04636877402663231 -0.11322280019521713 -0.03848172351717949
-0.025860602036118507 -0.11632188409566879 0.4336172640323639
0.017171695828437805 -0.12828990817070007 -0.016502980142831802
-0.13149751722812653 0.024591658264398575 0.0033651795238256454
0.06816769391298294 -0.02994687296450138 -0.40210214257240295
0.11173980683088303 -0.06515919417142868 -0.004777615889906883
-0.1097770631313324 -0.04498554766178131 -0.059726305305957794
0.037206850945949554 -0.0779838040471077 -0.41256916522979736
0.08464040607213974 -0.09202145040035248 -0.15068133175373077
-0.14923250675201416 0.03698558360338211 0.42040735483169556
-0.10581530630588531 -0.06311234086751938 0.07798413932323456
-0.12448526918888092 -0.04714881256222725 0.125466987490654
0.015171397477388382 -0.09874297678470612 -0.3227618932723999
0.0025577524211257696 -0.10680080950260162 0.027654046192765236
0.07225178927183151 -0.09829248487949371 0.04117979481816292
-0.12378125637769699 -0.020902132615447044 0.03096570074558258
0.0487026683986187 -0.10444419831037521 0.011913808062672615
-0.12760339677333832 0.042755044996738434 0.02030090056359768
0.10200192034244537 -0.08288711309432983 -0.038369111716747284
-0.13088564574718475 0.07481982558965683 0.3355647027492523
0.059761762619018555 -0.10514966398477554 0.002870578086003661
-0.11396060138940811 -0.026542743667960167 0.12904097139835358
0.026963528245687485 -0.10741221904754639 0.37746694684028625
0.003185098059475422 -0.10983966290950775 0.11363738775253296
-0.09037396311759949 -0.09556844830513 0.006668344140052795
-0.12953317165374756 0.024558503180742264 0.005218036472797394
0.10361099988222122 -0.06279692053794861 -0.000812070444226265
-0.1157718300819397 -0.04858407378196716 -0.06320025771856308
0.09248621016740799 -0.08352143317461014 -0.0169643796980381
0.09328476339578629 -0.06962145119905472 0.11691044270992279
0.03350222855806351 -0.1297224462032318 0.11675852537155151
-0.04320685565471649 0.12596917152404785 -0.3303077816963196
0.06931394338607788 -0.10894987732172012 -0.18888767063617706
-0.12338010966777802 0.05324940383434296 0.012475845403969288
0.013501826673746109 -0.123446524143219 -0.20310494303703308
-0.029848385602235794 0.06112338602542877 -0.3433344066143036
0.125305637717247 -0.07874879240989685 -0.4053579568862915
-0.12151661515235901 -0.04867948964238167 0.020479196682572365
-0.08814499527215958 -0.07667715847492218 -0.02431352436542511
-0.14763563871383667 0.057191990315914154 0.4138256907463074
-0.11752830445766449 0.08316664397716522 0.15389831364154816
0.0253620482981205 -0.09552490711212158 -0.18931159377098083
-0.13332559168338776 0.028215082362294197 0.25190091133117676
-0.11967793852090836 0.05640379711985588 0.0022338107228279114
-0.0988614410161972 0.06964252889156342 -0.23012591898441315
-0.08370194584131241 0.10881820321083069 0.046630166471004486
-0.0623789019882679 0.11045805364847183 -0.0840400829911232
-0.10918942093849182 0.011180013418197632 -0.1457793116569519
0.07525908946990967 -0.10214080661535263 0.15165428817272186
0.056481894105672836 -0.10498039424419403 -0.011816499754786491
-0.08130714297294617 0.04865552857518196 -0.2578096389770508
0.0466977097094059 -0.12030558288097382 -0.05084686726331711
-0.08753266930580139 0.04533424973487854 -0.2163991630077362
0.061785053461790085 -0.08983330428600311 0.038137730211019516
-0.1199042871594429 0.08238678425550461 0.12121190130710602
0.12835891544818878 -0.04189514368772507 0.011471995152533054
-0.1047665923833847 -0.04241367429494858 -0.05639178678393364
-0.11699888110160828 0.01362153422087431 0.03897520527243614
-0.08947917819023132 -0.06039799004793167 0.062128834426403046
-0.08055736124515533 0.06759881228208542 -0.18482506275177002
-0.1212388277053833 -0.029737401753664017 0.07066917419433594
0.10514824837446213 -0.06466926634311676 1.5139579772949219e-05
-0.11908826231956482 0.05683320388197899 0.006835822947323322
0.042999815195798874 -0.11160129308700562 -0.1165618896484375
-0.03933775797486305 -0.12011770159006119 -0.06715941429138184
0.013685286045074463 -0.12930499017238617 0.17683599889278412
-0.06249438226222992 -0.09130875021219254 0.22567474842071533
-0.1252451241016388 0.025267018005251884 0.002013202989473939
-0.10380914062261581 0.0718211829662323 -0.0310839656740427
0.06481306999921799 -0.09707903116941452 -0.017309991642832756
-0.11854355037212372 -0.05019793659448624 -0.06346502900123596
-0.09749710559844971 0.1036122590303421 0.016049440950155258
0.10393160581588745 -0.05967392027378082 0.0006103692576289177
-0.11852794885635376 -0.05181216448545456 -0.06227448210120201
-0.1305147409439087 -0.04961369186639786 0.3505054712295532
-0.10212847590446472 -0.05774601921439171 -0.0663057193160057
-0.06857465952634811 0.1322365552186966 -0.005379160866141319
-0.11461284756660461 -0.0501231923699379 -0.061887964606285095
-0.10668528825044632 0.010909894481301308 -0.1580028384923935
-0.1148662194609642 0.06043028458952904 0.016700753942131996
0.05663500726222992 -0.11252056807279587 0.0828452780842781
0.1163347065448761 -0.0684080719947815 -0.03591683879494667
0.09666669368743896 -0.06327815353870392 -0.0081853736191988
0.09061740338802338 -0.11144478619098663 -0.10944537818431854
0.04848193749785423 -0.022593336179852486 -0.5483322739601135
-0.11878892779350281 -0.041871488094329834 0.011743901297450066
-0.1332881599664688 0.01613793894648552 -0.009036149829626083
-0.13558970391750336 0.002076558768749237 0.2166714370250702
0.07452606409788132 -0.09628662467002869 -0.051219090819358826
-0.04471930116415024 -0.07158556580543518 -0.18639475107192993
-0.005723749287426472 -0.12913170456886292 -0.12268970906734467
-0.11073131114244461 -0.04109939560294151 -0.06180355325341225
0.0644775927066803 -0.09604664891958237 -0.006914926692843437
-0.031121447682380676 -0.11571406573057175 0.04906952753663063
-0.06838992983102798 -0.10302984714508057 -0.09663750231266022
-0.13162685930728912 0.023182537406682968 0.010566073469817638
0.09172194451093674 -0.08664926886558533 -0.24252836406230927
0.1066962331533432 -0.04671718180179596 -0.19911983609199524
-0.11166402697563171 0.00026426371186971664 -0.19101132452487946
-0.11451149731874466 0.06647644191980362 0.2810904085636139
0.014697669073939323 -0.07743027061223984 -0.3761444687843323
-0.12487122416496277 -0.00978849921375513 0.06766999512910843
0.011891278438270092 -0.1337052434682846 -0.05255008488893509
-0.062001656740903854 -0.10180991142988205 -0.04182380437850952
0.11303921043872833 -0.06827683001756668 0.002495391294360161
-0.08733814209699631 0.11283272504806519 -0.0763903334736824
-0.07199688255786896 0.0228661447763443 -0.2997375428676605
-0.07719811797142029 0.13510435819625854 0.3713907301425934
-0.04592326655983925 0.0006277505308389664 -0.44687360525131226
0.13040658831596375 -0.03193078190088272 0.1922396421432495
-0.06472519040107727 -0.1220228523015976 -0.011953972280025482
-0.03981420025229454 -0.032354697585105896 -0.3338335156440735
0.0506095290184021 -0.11364485323429108 -0.04589689522981644
0.07196342945098877 -0.09118182957172394 -0.12144247442483902
0.0012745875865221024 -0.11579851806163788 -0.12655356526374817
-0.12262268364429474 0.05891472101211548 0.014342401176691055
0.10587619990110397 -0.06413231045007706 -0.0028116032481193542
0.03788222000002861 -0.12365049123764038 -0.04569001495838165
-0.09082423895597458 0.10513507574796677 -0.1654955893754959
-0.09799395501613617 -0.019302353262901306 -0.1577523797750473
0.06494051963090897 -0.09450054168701172 -0.02014107257127762
0.10816308856010437 -0.06280312687158585 -0.003281639888882637
0.05362812057137489 -0.1003359854221344 -0.01088776532560587
-0.10073421895503998 0.008033139631152153 -0.3010377585887909
-0.02432706020772457 0.09587644785642624 -0.2779140770435333
-0.021620219573378563 -0.1276203840970993 -0.1578805297613144
0.055929820984601974 -0.11046716570854187 0.21432602405548096
-0.12652982771396637 -0.017592845484614372 0.07645784318447113
-0.12404049932956696 0.053661417216062546 0.01401645876467228
-0.12087719142436981 0.04481631517410278 -0.06379478424787521
0.11571544408798218 -0.06404293328523636 -0.0007912600412964821
0.028527885675430298 -0.10185086727142334 0.10338804870843887
-0.06480961292982101 -0.11654336005449295 0.2579856812953949
-0.11871710419654846 -0.04106234014034271 0.23999525606632233
-0.12821146845817566 0.000911998562514782 -0.011526869609951973
-0.09915102273225784 -0.053675103932619095 -0.059916459023952484
-0.12472278624773026 -0.03451737388968468 0.02676239237189293
-0.07723598927259445 0.13249684870243073 0.31048062443733215
-0.12088165432214737 0.054844729602336884 0.0069173285737633705
0.10624749213457108 -0.06634926050901413 0.0012326675932854414
-0.12254013866186142 -0.020533081144094467 0.07329718768596649
-0.04869777336716652 -0.12192773818969727 0.4076206088066101
-0.13366162776947021 -0.015280120074748993 -0.15115325152873993
-0.1254170835018158 0.03293628245592117 -0.012266939505934715
-0.05224057286977768 -0.09439451992511749 0.14651411771774292
-0.08009805530309677 0.11597593128681183 0.38199591636657715
-0.11740964651107788 -0.04876776784658432 -0.06790769845247269
-0.07863310724496841 -0.07018561661243439 -0.03779361769556999
-0.06871789693832397 0.11513590812683105 0.09711854159832001
0.07289894670248032 -0.0979619026184082 0.09370318055152893
0.006952679716050625 -0.13464605808258057 -0.04179838299751282
-0.05877695232629776 -0.12444037199020386 0.37244272232055664
0.11103297770023346 -0.05948551371693611 0.41605883836746216
-0.09008349478244781 -0.06947401911020279 0.1647755205631256
-0.09653166681528091 -0.09977158904075623 0.13733093440532684
-0.03268091380596161 -0.11091814190149307 0.03870837390422821
-0.1300867199897766 0.02743341028690338 -0.002393055707216263
-0.10103021562099457 -0.07600883394479752 0.08337371796369553
-0.005369827151298523 -0.12341949343681335 -0.16505736112594604
0.11263039708137512 -0.06491835415363312 0.0017711403779685497
0.10847778618335724 -0.06053538620471954 -0.00012213736772537231
0.10839606076478958 -0.06597967445850372 -0.004334162920713425
-0.11337679624557495 -0.04249099642038345 -0.06236105412244797
0.04892656207084656 -0.11495187878608704 -0.04345092922449112
0.036857135593891144 -0.11217285692691803 0.052161987870931625
0.023063763976097107 -0.1168803870677948 -0.02057567983865738
0.06327380239963531 -0.11190713942050934 0.0026439856737852097
0.10416679084300995 -0.069071464240551 -0.006242675706744194
0.11405296623706818 -0.05157379433512688 0.11785467714071274
0.09995952248573303 -0.07330335676670074 -0.12145981192588806
0.11016513407230377 -0.08161216974258423 -0.10064594447612762
-0.12271016091108322 0.030788542702794075 0.11167486757040024
-0.10564617812633514 0.08244884014129639 0.019125554710626602
-0.0729764774441719 -0.094576895236969 -0.021482985466718674
0.11025010049343109 -0.0816165879368782 -0.14949536323547363
-0.1289367824792862 0.0444035679101944 0.2116953730583191
0.10331718623638153 -0.05970451608300209 0.04300471022725105
0.054007358849048615 -0.09653051942586899 -0.14479099214076996
-0.0654410719871521 0.12291372567415237 0.035937536507844925
0.10782627761363983 -0.05713418498635292 -0.007011882960796356
0.06775876879692078 -0.0969151109457016 -0.009394602850079536
0.10612574219703674 -0.06677785515785217 0.0012723393738269806
-0.12638506293296814 -0.024524196982383728 -0.08117303252220154
0.01741183176636696 -0.03361468389630318 -0.4504545032978058
-0.12081044912338257 -0.03718724846839905 0.016544105485081673
-0.11920280009508133 -0.042304836213588715 -0.06596241146326065
-0.12695737183094025 -0.051427025347948074 -0.016601817682385445
-0.12583541870117188 -0.01235048845410347 0.09146302193403244
0.048479124903678894 -0.11153828352689743 0.11359047889709473
-0.1023787409067154 -0.0910656750202179 0.3418511748313904
0.07477320730686188 -0.08684108406305313 -0.01128220185637474
0.0871661975979805 -0.09210477769374847 0.3832049071788788
-0.07667993009090424 0.10918784141540527 -0.10207591950893402
0.04379735514521599 -0.11016795039176941 -0.04563343897461891
0.07937119901180267 -0.10790795832872391 -0.04541587829589844
-0.031225472688674927 -0.06010904163122177 -0.3911592662334442
0.08399199694395065 -0.05837664008140564 0.053417105227708817
0.11553516983985901 -0.06164724752306938 -0.0036499849520623684
-0.07992328703403473 0.10123182088136673 0.04348446801304817
-0.036354437470436096 0.11011159420013428 -0.22656579315662384
0.023022733628749847 -0.12363959848880768 0.20246821641921997
0.027954477816820145 -0.13349182903766632 0.012369143776595592
-0.10126664489507675 -0.07406391948461533 0.056156061589717865
-0.11141689121723175 -0.04516122117638588 -0.06062619388103485
0.1026705652475357 -0.08266206085681915 -0.10543721914291382
-0.08576171100139618 0.09132622182369232 -0.010742351412773132
-0.012438060715794563 -0.10821554064750671 0.21046747267246246
-0.02683783508837223 -0.11322388052940369 0.033886950463056564
-0.11769328266382217 -0.02024685963988304 0.07452713698148727
-0.08398247510194778 -0.07945865392684937 -0.18842260539531708
0.007192410994321108 -0.11990275979042053 -0.03680824115872383
-0.1038612350821495 0.03845803812146187 -0.10346929728984833
0.06915225088596344 -0.10928681492805481 -0.06881028413772583
-0.12231818586587906 0.04957135394215584 0.1525559425354004
-0.001707690767943859 -0.11716730892658234 -0.24439281225204468
-0.043000660836696625 -0.11565602570772171 -0.14468622207641602
0.06427924335002899 -0.08246509730815887 0.3277146816253662
-0.11982642114162445 -0.0369160957634449 0.11377935856580734
-0.06375312805175781 -0.009818816557526588 -0.2559300661087036
0.07150440663099289 -0.09335993230342865 0.063836008310318
-0.12701191008090973 0.0237685889005661 -0.006636548787355423
0.048674941062927246 -0.11035548895597458 0.27073022723197937
-0.01611252874135971 -0.09866838157176971 0.01638657972216606
-0.12185881286859512 0.01084068976342678 0.0077602192759513855
-0.12854169309139252 0.06571327894926071 0.3638446033000946
-0.10655616968870163 0.07862016558647156 -0.12434782832860947
0.1129244714975357 -0.021418461576104164 -0.009808830916881561
-0.11208952963352203 0.07031067460775375 0.35328906774520874
-0.13823719322681427 0.008759284391999245 0.290073961019516
0.05185210332274437 -0.1118532195687294 0.1877197027206421
0.10732810944318771 -0.0603068508207798 0.0016665214207023382
-0.04139095917344093 -0.11252985894680023 -0.08346651494503021
-0.12780439853668213 -0.023429840803146362 0.07506915181875229
-0.13088765740394592 -0.00792720913887024 0.09687373042106628
0.020361587405204773 -0.13108403980731964 0.4264906644821167
-0.11512579023838043 0.11434769630432129 0.3944397270679474
-0.12412390112876892 0.012458611279726028 -0.0996827632188797
-0.12529635429382324 0.06313345581293106 0.007432777434587479
0.11469663679599762 -0.05910369008779526 0.07649049162864685
-0.1354404091835022 -0.00880345143377781 -0.06824960559606552
0.0028459522873163223 -0.12600299715995789 0.011117342859506607
-0.13361775875091553 0.06791023910045624 0.28149810433387756
-0.13278232514858246 0.02621966041624546 0.004804895259439945
-0.1278247833251953 0.025916198268532753 0.0037749968469142914
0.05626814812421799 -0.11835412681102753 -0.15673546493053436
-0.12267139554023743 -0.006093120202422142 -0.048482462763786316
-0.11935581266880035 0.06491092592477798 0.2540358901023865
-0.03425019979476929 -0.11381421983242035 -0.12238754332065582
-0.12191668152809143 -0.0389196015894413 0.02871875651180744
0.07840155065059662 -0.06324317306280136 0.26503610610961914
-0.09183347970247269 -0.11441760510206223 0.08267172425985336
0.019686713814735413 -0.06183888018131256 -0.26292848587036133
-0.009771345183253288 -0.11990701407194138 0.021351218223571777
-0.08729909360408783 0.10242241621017456 0.017527583986520767
0.11790411919355392 -0.06452123075723648 -0.030301842838525772
-0.1283935308456421 0.033238351345062256 0.038601621985435486
-0.10900862514972687 -0.055781375616788864 0.004736202768981457
-0.09595803171396255 0.03870445862412453 -0.19238853454589844
-0.13035599887371063 0.032524120062589645 0.12243806570768356
-0.08864729106426239 -0.07228536903858185 0.056760795414447784
-0.10837498307228088 0.021029898896813393 -0.1465419977903366
0.11709816008806229 -0.06740563362836838 0.00038348324596881866
-0.11496318876743317 -0.053713906556367874 -0.06479305028915405
-0.09393776953220367 -0.07609225809574127 0.060562148690223694
-0.10327742993831635 0.09928961098194122 -0.05703692138195038
-0.12749460339546204 0.05884415656328201 0.010807548649609089
0.1110515296459198 -0.06493432819843292 0.0006871074438095093
-0.12173972278833389 0.06362996995449066 0.03787880018353462
-0.12918290495872498 -0.015161794610321522 -0.0713835060596466
0.018700655549764633 -0.12888866662979126 -0.022773994132876396
-0.11992423236370087 0.09310998767614365 0.20182031393051147
0.08430283516645432 -0.10773608088493347 0.14513303339481354
0.11392553150653839 -0.06532814353704453 -0.004807197488844395
0.004393620416522026 -0.10852081328630447 -0.2423786073923111
0.0752149447798729 -0.09447861462831497 -0.01929476484656334
-0.12258371710777283 0.09545988589525223 0.2990139126777649
-0.09837907552719116 0.11087947338819504 0.23296909034252167
0.10544382035732269 -0.05850973352789879 -0.029612263664603233
-0.12805259227752686 0.031260211020708084 0.1756168007850647
-0.08845272660255432 -0.08426186442375183 0.056976377964019775
0.10820095241069794 -0.06877458095550537 -0.004483984317630529
0.10157021880149841 -0.0740060955286026 -0.03532553091645241
0.10612127184867859 -0.07826420664787292 -0.1274861991405487
-0.07059255987405777 0.11736945062875748 0.07996076345443726
-0.12827858328819275 0.022966625168919563 0.0022710412740707397
-0.10172788798809052 0.03480377048254013 -0.15930253267288208
0.10520729422569275 -0.08223545551300049 -0.04759237542748451
0.08517644554376602 -0.059131331741809845 0.0766153633594513
0.011119966395199299 -0.1407587230205536 -0.0988534539937973
0.11218193918466568 -0.06778941303491592 0.005951613187789917
-0.06332100927829742 0.10937434434890747 -0.16253849864006042
0.06939631700515747 -0.07472024857997894 0.06016483157873154
0.10533903539180756 -0.060501910746097565 -0.00680946558713913
-0.09630678594112396 0.09865064918994904 -0.12475515902042389
-0.05995063856244087 0.12300783395767212 0.332057386636734
-0.13358628749847412 0.008168688975274563 0.11193210631608963
-0.07927637547254562 0.10601584613323212 0.04039948061108589
0.0673208087682724 -0.09723833948373795 -0.007930011488497257
0.004925843328237534 -0.1252264678478241 -0.055068742483854294
-0.06307671964168549 -0.10284143686294556 0.08309675753116608
-0.11325814574956894 -0.03767046332359314 -0.04478919506072998
-0.1153823584318161 -0.04993382841348648 -0.056078024208545685
-0.10359100997447968 -0.041898682713508606 -0.20123940706253052
-0.10966700315475464 -0.04388439655303955 -0.05887294560670853
-0.09016971290111542 -0.06635265797376633 0.08339619636535645
-0.1283496916294098 0.029521850869059563 -0.00830430630594492
-0.02754511870443821 -0.1300482153892517 0.10163558274507523
0.11218740046024323 -0.06204553693532944 -0.0021926574409008026
0.08690368384122849 -0.02227913774549961 -0.31284695863723755
-0.07205730676651001 0.10115455090999603 0.07909826189279556
-0.1280507743358612 0.028968147933483124 0.09942344576120377
0.10471836477518082 -0.03743259981274605 0.06674913316965103
-0.0861663892865181 -0.07415451854467392 0.054609350860118866
-0.13147962093353271 0.028858473524451256 -0.0019402578473091125
-0.08092556148767471 0.10505162924528122 -0.09791634976863861
-0.12449927628040314 0.019164077937602997 0.0031976914033293724
0.09859227389097214 -0.09090607613325119 0.23007352650165558
-0.021236233413219452 -0.1275864839553833 0.1751403957605362
0.06183043494820595 -0.09297190606594086 0.03382232040166855
0.09595117717981339 -0.08349641412496567 -0.01553935743868351
-0.08289601653814316 -0.08147762715816498 -0.0902852863073349
-0.0783686414361 0.11086396872997284 0.08625801652669907
0.012090068310499191 -0.03074043057858944 -0.3614896237850189
0.07170923054218292 -0.0850464478135109 0.1594035029411316
0.05067475140094757 -0.11630280315876007 -0.24879178404808044
-0.08873455971479416 0.07274473458528519 -0.3444729149341583
0.0805525854229927 -0.1050514429807663 0.20790573954582214
-0.12729617953300476 0.055840812623500824 0.324096143245697
-0.11633967608213425 -0.04400324076414108 0.01776566356420517
-0.059197090566158295 0.13989759981632233 0.17673993110656738
0.06311939656734467 -0.09955079853534698 0.0569157674908638
0.10872168093919754 -0.07725032418966293 -0.10454526543617249
-0.09360072016716003 0.08686698973178864 0.058722272515296936
0.05606914311647415 -0.10883453488349915 -0.03748519718647003
-0.12356919050216675 -0.015738531947135925 0.06486526131629944
-0.11749079078435898 0.03446691855788231 -0.15627849102020264
-0.03541013225913048 0.13616755604743958 -0.003949448466300964
-0.07902902364730835 -0.08687270432710648 0.06775723397731781
-0.09289435297250748 -0.06393545866012573 0.10557927191257477
-0.08122126013040543 -0.08985037356615067 -0.03825438395142555
0.006675452459603548 0.06656282395124435 -0.43999311327934265
-0.13193564116954803 0.029183071106672287 0.10437950491905212
-0.04849962145090103 0.11332125961780548 -0.2522912919521332
0.1046358272433281 -0.060854263603687286 0.07469462603330612
-0.11816933751106262 -0.03596663847565651 -0.05844895914196968
-0.037138089537620544 -0.11732667684555054 -0.05867847427725792
-0.11767016351222992 -0.014158890582621098 -0.21444734930992126
-0.09700334072113037 -0.028190553188323975 -0.33397144079208374
-0.06380058825016022 0.11792340874671936 0.23375023901462555
0.051861729472875595 -0.11185120046138763 -0.04611361026763916
-0.05793217569589615 0.13941219449043274 0.20296382904052734
-0.035991549491882324 0.11691483855247498 -0.1656046211719513
-0.09395597875118256 -0.07890338450670242 0.41688430309295654
-0.09855668991804123 0.09449207782745361 -0.010440556332468987
-0.13090434670448303 0.02751380205154419 0.004762602038681507
-0.12617942690849304 -0.020119670778512955 -0.06381239742040634
-0.129070445895195 -0.03329447656869888 0.009965801611542702
0.0398649238049984 -0.11877615749835968 0.2537693381309509
-0.11814623326063156 -0.009789558127522469 0.054768845438957214
-0.12379523366689682 0.01116451807320118 -0.09582383185625076
-0.059517037123441696 0.1377660185098648 0.10590732097625732
0.11807647347450256 -0.06570400297641754 -0.008224602788686752
0.04312477260828018 -0.10537435859441757 -0.042297348380088806
-0.07102203369140625 0.12551039457321167 0.048888228833675385
-0.1324557512998581 0.006888878531754017 -0.03584709018468857
-0.08925165235996246 -0.08184628188610077 -0.06868801265954971
-0.1474153846502304 -0.01107995118945837 0.41044217348098755
0.0828230008482933 -0.10281813889741898 -0.09823533147573471
0.02396576851606369 -0.10719239711761475 0.3203425109386444
-0.08693864941596985 -0.06897179037332535 0.06495216488838196
-0.1258922517299652 0.021950289607048035 0.005953289568424225
-0.06913533061742783 -0.08840692788362503 -0.12212389707565308
0.0402909517288208 -0.05754449963569641 -0.30807065963745117
0.0662609338760376 -0.10355307906866074 0.045359548181295395
0.006883556488901377 -0.12657149136066437 -0.06435331702232361
-0.12498931586742401 0.05681123957037926 0.008549930527806282
0.10737325251102448 -0.06411178410053253 -0.0021912213414907455
0.10957778990268707 -0.06660225987434387 0.0014794878661632538
-0.12176854908466339 -0.010547464713454247 0.055673740804195404
-0.10225233435630798 -0.05888669192790985 -0.04505274444818497
-0.09603624045848846 -0.07139717787504196 0.06526725739240646
-0.11357271671295166 -0.05571170151233673 -0.05935245007276535
-0.1313801258802414 0.02683158405125141 -0.0012134891003370285
0.11065138876438141 -0.0683298408985138 0.001841069431975484
0.0013370029628276825 -0.12550316751003265 0.31087902188301086
-0.08701153099536896 0.12429972738027573 0.15908022224903107
-0.07755313813686371 -0.08254922926425934 0.0685572624206543
0.09443563222885132 -0.09077121317386627 -0.029480641707777977
-0.12450913339853287 -0.0014453574549406767 -0.0588628351688385
-0.12087462097406387 -0.025748392567038536 0.008601142093539238
-0.0602632611989975 -0.10289117693901062 0.40602225065231323
0.008248697966337204 -0.06726010143756866 -0.32935768365859985
-0.1185477077960968 -0.03302939608693123 -0.050100937485694885
0.11313837766647339 -0.06283943355083466 -0.00040370412170886993
0.1173662543296814 -0.07238942384719849 -0.012258060276508331
-0.07522542774677277 -0.04582672566175461 -0.2163824737071991
-0.0828036516904831 0.10479137301445007 0.0676795169711113
0.08767317235469818 -0.08573351800441742 -0.031120389699935913
-0.060433294624090195 -0.057475604116916656 -0.33841097354888916
0.05597370117902756 -0.10260286927223206 0.4318528175354004
0.01152198575437069 -0.11634636670351028 0.009417090564966202
0.029871676117181778 -0.09794719517230988 0.05284702777862549
0.10537930577993393 -0.05708048492670059 -0.028120849281549454
0.11355939507484436 -0.06285721063613892 -0.008774727582931519
0.05485224351286888 -0.10310031473636627 0.04136752337217331
0.07817064225673676 -0.09637083113193512 0.08378662914037704
0.092367984354496 -0.0665142759680748 -0.11602489650249481
0.05243969336152077 -0.11623439937829971 0.40852585434913635
-0.13125255703926086 -0.028613580390810966 -0.14036092162132263
0.10637963563203812 -0.03952670469880104 0.04218479245901108
0.01850253716111183 -0.12640102207660675 -0.04199422150850296
-0.09812142699956894 0.10214966535568237 0.2035737931728363
-0.1222621351480484 0.02333792857825756 0.0937567949295044
-0.12601454555988312 0.024262690916657448 0.006428599823266268
-0.0815693587064743 0.11659036576747894 0.06639350950717926
-0.12149617075920105 0.05017920210957527 0.0036440007388591766
0.10057523101568222 -0.06356064975261688 0.002911282703280449
-0.10256107896566391 -0.07567787915468216 0.1658918708562851
0.042958587408065796 -0.11883275210857391 -0.05374032258987427
-0.07967779040336609 -0.08689995110034943 0.07863496989011765
-0.1327090859413147 -0.014472097158432007 0.340440034866333
0.0019492115825414658 -0.11511315405368805 -0.13824345171451569
0.11642777174711227 -0.04325319826602936 -0.05034513771533966
-0.11799092590808868 -0.04874739795923233 -0.06344768404960632
-0.04789009690284729 -0.13609687983989716 0.1468750536441803
0.09094008803367615 -0.0862831100821495 -0.02471555583178997
0.05136067420244217 -0.09276482462882996 -0.3362816274166107
-0.12315073609352112 0.05677279084920883 0.07872812449932098
-0.1011103093624115 0.08592965453863144 0.17854785919189453
0.1112784743309021 -0.0702451542019844 -0.0051462892442941666
0.012020384892821312 -0.12716364860534668 -0.0236767940223217
-0.091896653175354 0.11965861916542053 0.1416834592819214
-0.10435115545988083 -0.05081125721335411 0.02689354121685028
-0.03535415977239609 -0.11470046639442444 0.3331139087677002
-0.09068702161312103 -0.07072799652814865 0.0461309514939785
-0.10544054955244064 0.07081251591444016 0.02057499624788761
0.04728192090988159 -0.10195417702198029 0.005687592551112175
0.10811028629541397 -0.06233029067516327 0.006744228303432465
0.11188443750143051 -0.06207539513707161 -0.005779354367405176
-0.11801282316446304 -0.000281001441180706 -0.06179838627576828
-0.05726460739970207 -0.05837876349687576 -0.22989782691001892
0.11155127733945847 -0.04840894043445587 -0.1475130319595337
0.1151483878493309 -0.06599865853786469 -0.006807826459407806
-0.06884536147117615 0.10739061236381531 0.14560288190841675
1.8190592527389526e-05 -0.11043956130743027 0.2641140818595886
-0.1300262212753296 0.01782357692718506 0.0021239956840872765
-0.12639875710010529 0.042516544461250305 -0.096124067902565
0.08713431656360626 -0.09736606478691101 -0.11319442838430405
0.09616570174694061 -0.08485864102840424 0.008689191192388535
-0.11616824567317963 -0.03668626770377159 -0.05474825203418732
-0.11345000565052032 -0.045105643570423126 -0.05289990082383156
-0.12715168297290802 -0.007114328444004059 0.02941199764609337
0.006699312478303909 -0.13443206250667572 0.2508728504180908
-0.13192060589790344 0.021728983148932457 0.003778226673603058
-0.10970114916563034 0.10354360938072205 0.32810139656066895
-0.1312200427055359 0.01454794779419899 0.0072333901189267635
0.11598126590251923 -0.06384105980396271 -0.004512147977948189
-0.1264593005180359 0.05536603182554245 0.013310689479112625
-0.12955133616924286 0.04240282624959946 0.11263928562402725
0.09497873485088348 -0.08692972362041473 0.044756900519132614
