0.0647924542427063 -0.12545393407344818 0.40182238817214966
0.07577233016490936 -0.09960412979125977 0.0664842277765274
-0.03998872637748718 0.11635037511587143 -0.003580360673367977
-0.11150422692298889 0.04991249367594719 0.020461076870560646
0.03410280868411064 -0.10532791167497635 0.1998388171195984
-0.09321114420890808 -0.06122598797082901 -0.09246642142534256
0.1075197234749794 -0.05685294419527054 -0.3240705728530884
-0.0692986249923706 0.08117607980966568 0.023443853482604027
-0.02677375264465809 -0.09917444735765457 0.28938111662864685
-0.08362644910812378 0.0888274610042572 0.023112131282687187
0.09919388592243195 -0.058425482362508774 -0.00034699821844697
-0.10590913891792297 0.01797962561249733 -0.004145359620451927
-0.11421859264373779 0.007317021489143372 -0.14236630499362946
-0.08311973512172699 -0.08308923244476318 0.1241116002202034
-0.04817226901650429 0.1738622933626175 0.056682389229536057
0.012919511646032333 -0.05986461788415909 -0.35323482751846313
0.08258214592933655 -0.06298760324716568 0.007804146967828274
-0.06416595727205276 -0.08405976742506027 -0.12511028349399567
-0.05530457943677902 0.009115267544984818 -0.28656235337257385
-0.07071763277053833 -0.03415533900260925 -0.2590751349925995
0.049627386033535004 -0.09553340077400208 -0.11466003954410553
-0.11554825305938721 0.0891559049487114 0.3756147027015686
0.07245267182588577 -0.07223768532276154 0.1467142105102539
-0.07665394246578217 0.13794299960136414 0.01653800904750824
-0.015474624000489712 -0.09085746109485626 0.014616483822464943
-0.06880778074264526 0.10063208639621735 0.13705047965049744
-0.12316560000181198 0.03883100673556328 -0.09268992394208908
-0.052566491067409515 0.13033472001552582 0.18699440360069275
-0.06766679883003235 -0.060152508318424225 0.04631728306412697
-0.11794257164001465 0.03707021102309227 -0.06587891280651093
-0.08437088131904602 0.033708952367305756 0.011211823672056198
-0.04308691993355751 -0.0913243442773819 -0.052358757704496384
0.055876102298498154 -0.08430934697389603 -0.03603227809071541
-0.08323472738265991 0.07515886425971985 -0.0026498492807149887
0.10018675774335861 -0.0540628582239151 0.0026468057185411453
0.05186958238482475 -0.07586688548326492 0.06648540496826172
-0.06365368515253067 0.1169479638338089 0.06870460510253906
0.13360653817653656 -0.0646025761961937 0.18678748607635498
0.08372287452220917 -0.08391141146421432 -0.11359764635562897
-0.050173550844192505 0.11388403177261353 -0.10106805711984634
-0.0867881327867508 0.1048877164721489 0.34187060594558716
-0.1105896458029747 0.0534520260989666 -0.08725172281265259
0.13042765855789185 -0.0022596996277570724 0.003825022606179118
0.06514417380094528 -0.10781127214431763 -0.016414035111665726
-0.07810788601636887 0.10390611737966537 0.08333062380552292
-0.08110678195953369 0.06256987154483795 0.10314203053712845
0.03795609250664711 -0.07904072105884552 -0.3084605932235718
-0.10214832425117493 0.06456027179956436 0.041227973997592926
0.00514141283929348 0.048665426671504974 0.37949854135513306
-0.04248015210032463 0.11699080467224121 0.036162637174129486
-0.1016724482178688 0.04612879082560539 0.019478384405374527
0.10405486822128296 -0.05851628631353378 -0.045423638075590134
-0.09867718815803528 0.09701621532440186 0.3462735414505005
0.09897228330373764 -0.060743629932403564 0.3265392780303955
-0.06543662399053574 0.1397842913866043 -0.10977020114660263
0.12401150912046432 -0.07016632705926895 -0.05531204864382744
-0.000870867632329464 0.05143456906080246 -0.41464802622795105
0.11683416366577148 -0.027409769594669342 -0.008846724405884743
-0.027514846995472908 -0.07358858734369278 -0.02734939381480217
0.07827581465244293 -0.08983846008777618 -0.026511169970035553
0.010114082135260105 -0.10689748078584671 0.2803843319416046
0.07106730341911316 -0.07062935829162598 -0.17637620866298676
-0.08067644387483597 0.09621009230613708 0.17022822797298431
0.07944118231534958 -0.07364103943109512 0.044036246836185455
-0.06743231415748596 0.12743572890758514 0.006214177701622248
0.09471990168094635 -0.047283172607421875 0.029424870386719704
-0.07321396470069885 0.10936978459358215 0.046870261430740356
0.14173074066638947 -0.059959523379802704 -0.19159984588623047
-0.09141164273023605 -0.06933735311031342 0.06392531096935272
0.0779147818684578 -0.07226146012544632 0.006747668609023094
0.098830446600914 -0.05572611838579178 -0.0016435422003269196
-0.07958821952342987 -0.06799723953008652 0.29968300461769104
-0.06386330723762512 -0.08510765433311462 0.2535150349140167
-0.07606680691242218 -0.060564182698726654 -0.059784937649965286
0.08251838386058807 -0.0799180418252945 -0.023670922964811325
-0.08404285460710526 -0.0666315108537674 -0.036809612065553665
-0.08524050563573837 0.10622185468673706 0.06857180595397949
-0.03243060037493706 0.018665406852960587 -0.3533836305141449
0.06644249707460403 -0.0967954695224762 -0.0846155434846878
0.09281294047832489 -0.061225827783346176 0.01449042372405529
-0.10230498760938644 0.03258261829614639 0.07748034596443176
-0.09211700409650803 0.07681705057621002 -0.05393965169787407
-0.003174873534590006 -0.0972961038351059 0.013431485742330551
-0.02342897281050682 -0.09718361496925354 0.007791963405907154
-0.11374516785144806 -0.03771455958485603 0.09495282173156738
0.060665570199489594 -0.10347204655408859 0.0005295667797327042
0.05951666831970215 -0.08979352563619614 -0.01410236582159996
-0.10931029915809631 -0.0003278366639278829 -0.04311374947428703
0.08762087672948837 -0.058038897812366486 -0.010081305168569088
0.012345358729362488 -0.08870622515678406 0.0019298046827316284
0.09348108619451523 -0.058823805302381516 0.07861451804637909
-0.06915926188230515 0.11384323984384537 0.08107727766036987
-0.04466257616877556 -0.0932813435792923 -0.1711941957473755
-0.07170135527849197 -0.06602372229099274 -0.09862500429153442
-0.10376069694757462 0.06328526884317398 0.049161359667778015
-0.03826699033379555 -0.08436355739831924 0.0953143760561943
-0.08323943614959717 -0.05136488378047943 0.01045655645430088
-0.09933198988437653 0.08527958393096924 -0.027933377772569656
-0.0894557386636734 0.07351110130548477 0.1546604484319687
0.060889847576618195 -0.06720341742038727 0.1729825735092163
-0.004461375996470451 -0.08976376056671143 -0.17723488807678223
0.061670415103435516 -0.0729237049818039 0.2284935861825943
0.11961589753627777 -0.027821384370326996 -0.08440365642309189
0.09263988584280014 -0.06106844171881676 -0.005465742666274309
-0.08241881430149078 0.10106615722179413 0.07267940044403076
-0.055903855711221695 0.10362260043621063 0.06654225289821625
0.0861261859536171 -0.06972450017929077 -0.02459680289030075
-0.07263068854808807 0.10387258976697922 0.05185861885547638
0.05776357278227806 -0.09139677882194519 -0.008791396394371986
-0.020244356244802475 -0.07809488475322723 -0.15592633187770844
-0.11136121302843094 -0.017828267067670822 -0.019293416291475296
0.08169769495725632 -0.052276380360126495 0.21274448931217194
0.045943375676870346 -0.08792130649089813 -0.005585337523370981
-0.07966642826795578 -0.05515199899673462 -0.062485888600349426
0.08375325053930283 -0.06280865520238876 -0.022931259125471115
-0.07176869362592697 -0.058978140354156494 0.028724148869514465
-0.0784979984164238 -0.04570433497428894 0.21217966079711914
0.10837417840957642 -0.0612494982779026 0.006798926740884781
0.09551859647035599 -0.058754920959472656 -0.00011984817683696747
-0.042087577283382416 0.10703251510858536 -0.13486790657043457
-0.07820101827383041 0.120881088078022 0.2591038942337036
0.05307409167289734 -0.09182627499103546 -0.051840681582689285
0.023977864533662796 -0.09760738909244537 0.1280345618724823
-0.06694445013999939 0.09866337478160858 -0.08078296482563019
-0.07648566365242004 -0.06227826327085495 0.05163150653243065
0.07666103541851044 -0.0914122685790062 0.1833217591047287
-0.11434882134199142 0.08300881087779999 0.00655292859300971
-0.07799075543880463 0.11439772695302963 -0.003002431243658066
-0.1064842939376831 0.0696442574262619 0.052586477249860764
-0.07945001870393753 -0.05732195824384689 -0.04951523616909981
-0.05274565517902374 0.11173918843269348 0.20405718684196472
-0.08006253838539124 0.10425280779600143 0.13429391384124756
-0.08613317459821701 0.09836006909608841 -0.10487155616283417
0.09159420430660248 -0.05806107819080353 -0.004462492652237415
-0.062382832169532776 0.10933777689933777 0.061929166316986084
-0.03147987276315689 0.1272002011537552 0.10344083607196808
0.0726843774318695 -0.08676542341709137 0.312355101108551
-0.10521262884140015 0.06032867357134819 0.2936175763607025
0.00047865742817521095 -0.09019649028778076 0.014009060338139534
-0.09612524509429932 0.08817954361438751 -0.020903969183564186
0.09498613327741623 -0.05983084440231323 -0.005916952155530453
0.049305204302072525 -0.09314596652984619 -0.0007795765995979309
0.0971997007727623 -0.05582654848694801 0.00020211562514305115
-0.0180390365421772 -0.08959456533193588 0.025967605412006378
-0.09185947477817535 0.10498546063899994 0.13587507605552673
-0.06919284164905548 0.10234086215496063 -0.06857898086309433
0.10049200057983398 -0.044150322675704956 0.05844852328300476
0.024912813678383827 -0.1012614518404007 -0.0393073596060276
0.014844909310340881 -0.09703651070594788 -0.03464031592011452
-0.09000733494758606 0.08581338077783585 -0.017542602494359016
-0.008347401395440102 0.12523944675922394 0.04438569396734238
0.08855439722537994 -0.06766541302204132 0.06298170238733292
-0.032888997346162796 -0.10700689256191254 0.02443145588040352
-0.04632840305566788 -0.08708310127258301 -0.04341597855091095
-0.032205305993556976 0.05125953257083893 -0.29711323976516724
-0.07891540229320526 0.033759042620658875 0.06663231551647186
-0.046025197952985764 -0.08302424103021622 -0.12757739424705505
0.09997394680976868 -0.059663429856300354 -0.0006911419332027435
-0.05828872695565224 -0.07303882390260696 -0.025178544223308563
0.10142681002616882 -0.05664214864373207 -0.0028780046850442886
0.0979839563369751 -0.0592612624168396 -0.006052123382687569
0.08618403971195221 -0.06152334064245224 0.0036544501781463623
0.008376022800803185 -0.08553417026996613 0.021420810371637344
-0.06529208272695541 0.12349317967891693 0.0800936371088028
0.05794389918446541 -0.09878741949796677 -0.01906048320233822
-0.0041547007858753204 -0.11450555920600891 -0.10030670464038849
-0.07399839162826538 0.10146535187959671 0.07023805379867554
-0.08145839720964432 0.10985271632671356 0.05180983617901802
-0.07679358124732971 0.07247143983840942 0.06077679619193077
-0.06645089387893677 -0.06426416337490082 -0.029558150097727776
0.04239653795957565 -0.09370741993188858 0.007730431854724884
0.18533584475517273 -0.06550907343626022 0.23586662113666534
-0.1089833676815033 -0.0027017369866371155 0.26822105050086975
-0.04474656283855438 -0.0882013738155365 -0.04596687853336334
-0.04077433794736862 -0.012550126761198044 0.0695493146777153
-0.05773301422595978 0.09761389344930649 0.11671993136405945
-0.10265402495861053 -0.02711767517030239 0.046401552855968475
0.0828729122877121 -0.06757932156324387 -0.20671731233596802
0.11465185880661011 -0.05100724846124649 0.2728796899318695
0.09646190702915192 -0.06929365545511246 -0.11629455536603928
-0.103281170129776 0.08449473977088928 0.20666316151618958
-0.07181300222873688 -0.056524403393268585 -0.02724214270710945
0.09409190714359283 -0.05236818641424179 -0.008188977837562561
-0.08381743729114532 0.06563816964626312 0.17310558259487152
0.10453815758228302 -0.06732023507356644 -0.01694423146545887
-0.11342515051364899 -0.0069907912984490395 -0.023534687235951424
-0.10502675920724869 0.04035826772451401 0.055401090532541275
-0.08035546541213989 0.03445988520979881 -0.07565165311098099
-0.09114645421504974 0.08840767294168472 -0.014356231316924095
-0.07467976957559586 -0.06284338235855103 0.04624941200017929
-0.047337763011455536 -0.10428032279014587 0.3116506338119507
-0.0978834331035614 0.08756785094738007 -0.13001224398612976
0.00570082850754261 -0.08817899972200394 0.018377935513854027
-0.010827114805579185 -0.11626232415437698 0.09512635320425034
-0.05188332125544548 0.06352976709604263 -0.23701895773410797
-0.054288022220134735 -0.09053483605384827 0.06702364981174469
-0.060815516859292984 0.11094792187213898 0.17825151979923248
-0.013507850468158722 -0.08198986947536469 0.09687016904354095
-0.07052711397409439 -0.06661196053028107 -0.03339923173189163
-0.11232306063175201 0.05142427980899811 0.1317160278558731
0.046465568244457245 -0.1037752777338028 -0.042964860796928406
-0.08221966028213501 0.04421442002058029 0.09858549386262894
-0.05047999694943428 0.13043659925460815 0.05944707989692688
-0.011351601220667362 -0.1052580252289772 0.02843303047120571
-0.0675620436668396 0.10413461923599243 0.04423172399401665
-0.044388025999069214 0.0958809033036232 -0.23041807115077972
-0.07520557940006256 -0.06354725360870361 0.04436527192592621
0.016604933887720108 -0.10715323686599731 -0.07797129452228546
-0.10784368962049484 0.08012862503528595 0.10468877851963043
-0.10734198987483978 0.008481052704155445 -0.0003956311848014593
0.015562317334115505 -0.07469744980335236 -0.27538537979125977
0.09115380793809891 -0.05766073614358902 -0.005735964048653841
0.09419737011194229 -0.06026728078722954 -0.003071669489145279
0.09336571395397186 -0.0599372573196888 -0.000974675640463829
0.07112409174442291 -0.06113654002547264 0.05227503180503845
-0.09279358386993408 0.0883881077170372 0.1157832071185112
-0.08420351147651672 0.10728535056114197 0.04231700301170349
-0.07687988877296448 0.10007437318563461 0.06746543198823929
0.04929771646857262 -0.10787992924451828 -0.04485638439655304
-0.07951362431049347 0.10379315912723541 0.07131512463092804
-0.06976573169231415 0.1272488236427307 0.27108034491539
0.09526297450065613 -0.06415793299674988 -0.000462263822555542
-0.07053409516811371 -0.05416180565953255 -0.024057140573859215
-0.08182986080646515 0.0917709469795227 0.047101475298404694
-0.00323290191590786 -0.10059299319982529 0.24017813801765442
-0.08650950342416763 0.07389578968286514 0.0156981460750103
0.0915013998746872 -0.07349146902561188 0.09365637600421906
0.09614135324954987 -0.055127501487731934 0.004554998129606247
-0.08795227855443954 0.09763741493225098 -0.022636624053120613
-0.1183515191078186 0.06670376658439636 0.017500564455986023
-0.03132942318916321 -0.027738552540540695 -0.32646918296813965
-0.1044609397649765 0.05229828879237175 0.12850309908390045
0.0033252499997615814 -0.09501002728939056 0.016021305695176125
-0.06145111471414566 0.11581747978925705 0.02121654525399208
-0.0551406592130661 0.1154298186302185 0.0757366195321083
-0.094039686024189 0.08067506551742554 0.08506683260202408
0.09810813516378403 -0.07285606861114502 0.1771675944328308
-0.08384916186332703 0.10801061987876892 0.13644224405288696
0.053839027881622314 -0.07687627524137497 0.15313689410686493
0.11314772069454193 -0.05648910999298096 -0.048605166375637054
-0.10060637444257736 0.07995116710662842 -0.2561679482460022
-0.09763512015342712 -0.04794348031282425 0.16219796240329742
0.07042193412780762 -0.08974902331829071 -0.03375176712870598
-0.08263374119997025 0.09767094254493713 0.025618471205234528
0.04928895831108093 -0.08724410086870193 0.09336026012897491
-0.0928381159901619 0.07187868654727936 0.08055849373340607
-0.07529821246862411 -0.0826520174741745 -0.00365543644875288
-0.07557107508182526 -0.05524459481239319 -0.048684120178222656
-0.07138210535049438 0.11277172714471817 0.03977372497320175
-0.1162290871143341 0.041053324937820435 0.22483213245868683
0.01021544635295868 -0.12863975763320923 -0.06982778012752533
-0.11937901377677917 0.05881891027092934 0.009635464288294315
-0.0673743486404419 0.028482377529144287 -0.3258497416973114
-0.06130954623222351 -0.06707830727100372 0.019854437559843063
-0.008115574717521667 -0.09342221915721893 0.011763330549001694
0.05927945300936699 -0.09082876145839691 -0.05154329910874367
-0.07363323867321014 0.0971040204167366 0.11325134336948395
0.05168484151363373 -0.07567442208528519 0.03304154425859451
-0.08996791392564774 0.07010089606046677 0.08522207289934158
-0.10909229516983032 0.00789987575262785 0.005210745148360729
-0.07938544452190399 -0.08328215032815933 -0.10918419808149338
0.07401081174612045 -0.10101711750030518 0.34676891565322876
-0.09953181445598602 -0.06843806803226471 0.34337204694747925
0.08463984727859497 -0.08055752515792847 0.28403887152671814
0.07078184932470322 -0.0663917288184166 -0.2805856764316559
0.05563187599182129 -0.07879220694303513 0.045333970338106155
-0.08589781075716019 -0.0025329403579235077 -0.12064580619335175
-0.07296695560216904 -0.050997406244277954 0.05258931964635849
0.09101792424917221 -0.0630292296409607 -0.004277392290532589
-0.0660407617688179 0.12198007106781006 0.06051309406757355
0.1234704852104187 -0.02467411570250988 -0.1401066929101944
-0.004043135792016983 -0.0770372599363327 0.01388709805905819
-0.0761803686618805 0.10992145538330078 0.05599586293101311
0.09820060431957245 -0.05020907148718834 0.03536546975374222
0.014316089451313019 -0.09602939337491989 0.014599716290831566
0.0872117429971695 -0.05999893695116043 -0.009670142084360123
0.08804570138454437 -0.047610923647880554 0.08014705777168274
-0.051025498658418655 -0.0748685896396637 -0.03101862035691738
-0.07278648763895035 0.10340926051139832 -0.03210547938942909
0.07123345881700516 -0.07603796571493149 -0.02854735776782036
0.05449577793478966 -0.11014987528324127 -0.10910505056381226
0.09154097735881805 -0.07489693909883499 0.036558158695697784
0.09060589969158173 -0.0331411249935627 -0.18867023289203644
-0.08335196226835251 0.058554887771606445 -0.1464032679796219
-0.044436197727918625 -0.08243972063064575 -0.04560536891222
0.09719260782003403 -0.05540397763252258 -0.011492213234305382
-0.13079632818698883 0.028527287766337395 0.002151050604879856
-0.09647946804761887 0.06662726402282715 0.03633158653974533
-0.0275905542075634 -0.114270880818367 0.3763083815574646
-0.07147800922393799 0.101176418364048 0.0731097087264061
0.10789233446121216 -0.05313476547598839 -0.010624907910823822
-0.027135571464896202 0.08442869037389755 -0.33468103408813477
0.08163835853338242 -0.07361353188753128 -0.03114762343466282
0.053713761270046234 -0.07646181434392929 -0.018650950863957405
-0.08014637231826782 -0.051070261746644974 -0.04030580446124077
0.08596599847078323 -0.06001686677336693 -0.010236989706754684
0.04736573249101639 -0.09297902137041092 0.02827293798327446
0.09476310759782791 -0.050740472972393036 0.07268092036247253
-0.11142189800739288 0.02137930877506733 -0.01613742671906948
-0.00701544713228941 -0.09645136445760727 0.07353919744491577
0.09377439320087433 -0.08181612193584442 -0.15093325078487396
-0.053454045206308365 -0.08960232138633728 0.36190617084503174
-0.0026881415396928787 -0.09219052642583847 0.019510535523295403
0.09489736706018448 -0.056914474815130234 -0.012211684137582779
0.09648911654949188 -0.053087569773197174 -0.00016154907643795013
0.10508701205253601 -0.05122693255543709 0.09309183806180954
-0.10469700396060944 0.048811670392751694 0.16778837144374847
-0.0364164263010025 0.09110777080059052 -0.19147682189941406
0.09180141240358353 -0.04787890240550041 -0.0059021152555942535
-0.10561191290616989 -0.04761211574077606 -0.15557615458965302
-0.06690378487110138 0.1145055741071701 0.03149648383259773
0.10246898978948593 -0.05745938420295715 -0.0067306626588106155
0.019282182678580284 -0.10126377642154694 -0.18627198040485382
0.09787078201770782 -0.05452123284339905 -0.004591044038534164
-0.06281273066997528 0.07957437634468079 -0.16064639389514923
0.031565941870212555 -0.10532347857952118 -0.03914482146501541
0.09137901663780212 -0.05354646220803261 0.015603425912559032
-0.066724494099617 0.1047423705458641 0.008934177458286285
0.07925298810005188 -0.07857499271631241 -0.028471246361732483
-0.09702366590499878 0.08889409154653549 0.27001863718032837
0.06007701903581619 -0.06159081310033798 -0.00722164660692215
-0.09725409001111984 0.07380950450897217 0.2077370285987854
0.08644251525402069 -0.05405266582965851 0.367886483669281
0.089810311794281 -0.056211575865745544 -0.019762244075536728
0.08323001116514206 -0.0739915668964386 -0.024740396067500114
-0.11398596316576004 -0.009526094421744347 0.13909900188446045
0.09674552083015442 -0.062008608132600784 -0.0023082103580236435
-0.11647314578294754 0.06586188077926636 0.17970919609069824
-0.04197457432746887 -0.1002432182431221 -0.01560937985777855
0.1007164716720581 -0.04635322093963623 0.06522355228662491
-0.008596600033342838 -0.09033504873514175 0.016412680968642235
0.12208583950996399 -0.048005204647779465 -0.2396494746208191
-0.07105612754821777 -0.004094595089554787 -0.1780794858932495
-0.09075837582349777 0.075225830078125 0.12997767329216003
-0.09029383957386017 -0.054246120154857635 -0.050764940679073334
-0.08745450526475906 -0.023020321503281593 -0.1944144070148468
0.02257753349840641 -0.030093926936388016 -0.4244140684604645
-0.07170070707798004 -0.050556764006614685 -0.04459145665168762
-0.11514829099178314 -0.027200575917959213 0.202310711145401
-0.07578176259994507 0.09329536557197571 0.11326281726360321
-0.10804136842489243 0.05962361767888069 0.043440960347652435
0.0882362499833107 -0.06206482648849487 -0.00803430937230587
-0.09789983928203583 0.049747735261917114 -0.0006630243733525276
-0.07435735315084457 -0.06111665442585945 0.047887783497571945
-0.004889791831374168 -0.10538140684366226 0.003907822072505951
-0.07714895904064178 0.11143776029348373 0.054689861834049225
-0.020798439159989357 -0.08945485204458237 -0.04152959585189819
0.053328778594732285 -0.10465238988399506 0.0030478239059448242
0.09803213179111481 -0.06409581005573273 -0.005464793182909489
0.020401213318109512 -0.08505517244338989 0.32105669379234314
-0.050958577543497086 -0.07810312509536743 -0.04522380232810974
0.06708908081054688 -0.046155765652656555 -0.15618519484996796
0.10808192193508148 -0.04730173572897911 -0.0620061457157135
0.09849904477596283 -0.06015961989760399 0.03770624101161957
-0.048543475568294525 0.12065489590167999 -0.04870906099677086
-0.11198572814464569 0.023429200053215027 -0.012970790266990662
-0.09459172934293747 0.09933962672948837 0.027411481365561485
-0.11542776972055435 0.046616896986961365 -0.14011414349079132
-0.09048816561698914 -0.03352581337094307 0.02776636928319931
0.09557563066482544 -0.05433540418744087 -0.026624204590916634
-0.08333341777324677 -0.05792132765054703 -0.057457536458969116
0.0562325119972229 -0.09072304517030716 0.027050260454416275
-0.1023697480559349 0.01424313709139824 0.05190373212099075
0.09393827617168427 -0.05445443093776703 0.08120524883270264
-0.07254815101623535 -0.059668801724910736 0.04183655232191086
0.045488204807043076 -0.08559609204530716 -0.15107344090938568
-0.07604248821735382 -0.060375750064849854 0.02982732653617859
-0.07093250006437302 0.0838194489479065 -0.1286526769399643
-0.07973193377256393 -0.06381776928901672 -0.03840899467468262
0.04699713736772537 -0.1105334535241127 0.03153783082962036
-0.03135865181684494 -0.05689572915434837 -0.16152077913284302
-0.07184936106204987 -0.058488838374614716 -0.032315969467163086
0.08339209854602814 -0.05277574807405472 0.013109772466123104
-0.11092011630535126 0.04416126012802124 -0.04869484156370163
-0.12094873934984207 -0.01564055308699608 0.36593708395957947
0.06426753848791122 -0.08778564631938934 0.05503452569246292
-0.09241297841072083 -0.04862649366259575 -0.04598073661327362
-0.0950564295053482 0.10372857004404068 -0.023395471274852753
0.09247428923845291 -0.05976933240890503 0.0008446020074188709
-0.07455240190029144 0.10228677839040756 0.13272741436958313
0.04966352507472038 -0.07774439454078674 -0.2136165350675583
0.08142301440238953 -0.07856466621160507 -0.023488882929086685
-0.061184901744127274 0.06574035435914993 -0.18783091008663177
-0.0601615272462368 0.10003682971000671 0.02529323659837246
0.07847681641578674 -0.018806379288434982 -0.28669002652168274
-0.0503174290060997 -0.1055169478058815 -0.03361152112483978
-0.05282403528690338 0.11410165578126907 0.14215664565563202
0.03350723907351494 -0.08582257479429245 0.005346786230802536
-0.11309095472097397 0.054689448326826096 -0.021846942603588104
-0.08886052668094635 0.10916293412446976 0.041413407772779465
-0.07636305689811707 -0.05249672383069992 -0.044599663466215134
-0.006179627031087875 -0.09244738519191742 0.01692536287009716
0.05058302730321884 -0.0892094224691391 0.00593913160264492
-0.05045202746987343 -0.08325138688087463 -0.04552558436989784
-0.04943695664405823 0.08862854540348053 0.23812098801136017
0.09152510017156601 -0.05016300082206726 -0.06844457983970642
0.0986066535115242 -0.05905502289533615 -3.7867575883865356e-05
-0.09594264626502991 0.011569786816835403 0.020167212933301926
-0.07538984715938568 -0.06546026468276978 -0.07529737055301666
-0.10141851007938385 0.04575473815202713 0.06776400655508041
0.09325291961431503 -0.05677030608057976 -0.005629655905067921
-0.1219276487827301 0.03463180363178253 0.10576147586107254
0.08841614425182343 -0.07617559283971786 -0.029523812234401703
-0.12415879964828491 -0.0027724746614694595 -0.1633421778678894
0.0941065102815628 -0.05760384723544121 -0.05093447118997574
-0.10353435575962067 0.08772891759872437 0.09466128796339035
-0.08478653430938721 -0.0486207976937294 -0.0517413504421711
0.013852240517735481 -0.10504788905382156 0.3170289397239685
0.07485821843147278 -0.055349431931972504 -0.23349547386169434
0.1698264479637146 -0.028556613251566887 0.3335909843444824
-0.010218208655714989 -0.09023534506559372 0.005064800381660461
0.025460656732320786 0.003235790878534317 -0.4938185513019562
-0.025746971368789673 -0.09499183297157288 0.009622424840927124
-0.06302031129598618 -0.07868871092796326 0.18566562235355377
0.09939522296190262 -0.05883030593395233 -0.0032495632767677307
-0.01404777355492115 -0.08532261848449707 0.007901318371295929
-0.0782415047287941 -0.0448283776640892 -0.13151077926158905
-0.06941458582878113 0.10702776908874512 0.05280285328626633
0.07101461291313171 -0.08635520190000534 -0.08791301399469376
0.09468036890029907 -0.06429281085729599 -0.0010878853499889374
-0.008719578385353088 -0.09194120019674301 0.005747293122112751
-0.10969170928001404 0.04487155005335808 -0.18610958755016327
-0.10174660384654999 0.08047816902399063 0.16414955258369446
-0.07703395187854767 -0.0599539615213871 0.050005704164505005
-0.07886204868555069 -0.05663156509399414 -0.03875938057899475
-0.058453503996133804 -0.07788875699043274 -0.0712299719452858
0.02929021045565605 -0.10679836571216583 0.10120848566293716
-0.1017855554819107 -0.019956527277827263 0.042339008301496506
-0.11684498190879822 -0.04344698041677475 -0.12258923798799515
0.07583034038543701 -0.06552682816982269 -0.019754137843847275
0.09533365070819855 -0.05813371390104294 0.00026682671159505844
-0.11346714943647385 0.04419003427028656 0.14390945434570312
-0.07569659501314163 0.09804381430149078 0.08657564967870712
-0.08484965562820435 0.10177759826183319 -0.060994140803813934
-0.05764887481927872 -0.08074495196342468 -0.0359775647521019
0.09946094453334808 -0.055881332606077194 -0.00400518998503685
-0.08554218709468842 0.08340723812580109 0.014429356902837753
-0.09196155518293381 0.09363091737031937 0.3105543553829193
-0.039710041135549545 -0.08263853192329407 -0.033240266144275665
0.09526598453521729 -0.06249642372131348 -0.012649097479879856
-0.11739099025726318 -0.036346305161714554 -0.025887321680784225
-0.056069713085889816 -0.09970051050186157 0.22978918254375458
-0.07380609959363937 0.1119299978017807 0.037232011556625366
-0.07629359513521194 0.11389078199863434 0.039050791412591934
0.10525384545326233 -0.04714283347129822 0.008402233943343163
-0.11780110746622086 0.05873497575521469 0.36121129989624023
0.10011652857065201 -0.06534159183502197 -0.0017031838651746511
-0.06400386989116669 0.03677802532911301 -0.24487461149692535
-0.0762442797422409 0.02727828547358513 -0.20794062316417694
-0.061138711869716644 0.09968836605548859 0.04888330399990082
0.10152323544025421 -0.05687267705798149 -0.0008200649172067642
-0.07792143523693085 -0.056016724556684494 -0.05040641501545906
-0.03774835541844368 -0.10909615457057953 0.27162936329841614
-0.11177413910627365 0.07463978230953217 0.01673915609717369
-0.10159633308649063 -0.01960301771759987 0.02692428231239319
0.11205445230007172 -0.07308489829301834 0.15023685991764069
0.0552712045609951 -0.10738615691661835 -0.03193294256925583
-0.05569271743297577 0.1304348260164261 0.05261309817433357
-0.11221514642238617 -0.010973315685987473 -0.056456275284290314
0.09699573367834091 -0.04352390021085739 -0.13584375381469727
0.03616238385438919 -0.10156887769699097 0.17356577515602112
0.06516905874013901 -0.08280585706233978 0.04542623460292816
0.06768844276666641 -0.07851087301969528 0.009059804491698742
-0.03036278858780861 -0.096481554210186 0.009390456601977348
0.09014467895030975 -0.06854851543903351 -0.023711539804935455
-0.04624524712562561 -0.06007664278149605 0.04143330827355385
-0.04906192794442177 0.09371789544820786 -0.1704760044813156
0.028891438618302345 -0.10720282047986984 0.0728968158364296
0.16243578493595123 -0.07009617984294891 0.31222018599510193
-0.059027049690485 -0.07831022143363953 0.15321120619773865
0.10282039642333984 -0.05885659158229828 -0.0033773742616176605
0.01480972208082676 0.07770147174596786 0.12281733751296997
0.00868232361972332 -0.08374188840389252 -0.22899791598320007
0.058371223509311676 -0.08489333838224411 -0.006099357269704342
0.10181505978107452 -0.06656136363744736 0.00396360456943512
0.0025648586452007294 -0.04697740077972412 -0.21060357987880707
0.07909336686134338 -0.076205313205719 -0.03606327250599861
0.06870266795158386 -0.09539395570755005 -0.026187913492321968
-0.0075726136565208435 -0.08300811797380447 0.0204039104282856
-0.09926600009202957 0.02271108515560627 -0.009305272251367569
0.14185792207717896 -0.05724337697029114 -0.03954877704381943
0.04920278117060661 -0.09908786416053772 -0.04364509880542755
0.08199642598628998 -0.07713668793439865 -0.1172490194439888
-0.009120975621044636 -0.07655505836009979 -0.04122212901711464
-0.05973007529973984 0.12104657292366028 0.07914479821920395
-0.11291029304265976 0.06990890204906464 0.13937412202358246
-0.00833032839000225 -0.08798293769359589 0.2124803066253662
-0.05322210490703583 -0.07762302458286285 -0.08521305024623871
-0.07071380317211151 0.0919615626335144 0.13994713127613068
-0.10594236105680466 0.046225376427173615 0.038761213421821594
-0.0006183832883834839 -0.06029777601361275 0.021830368787050247
0.07211082428693771 -0.07526147365570068 0.34886685013771057
-0.08359573781490326 -0.01510333176702261 0.1795305758714676
-0.06578542292118073 -0.06570105254650116 -0.029456086456775665
-0.07096826285123825 -0.05886973440647125 0.045198410749435425
-0.08065573871135712 0.07934646308422089 0.10908779501914978
-0.07008833438158035 0.12416324764490128 0.21908703446388245
0.09480012208223343 -0.05962791293859482 -0.006111606489866972
-0.09098201990127563 -0.057606037706136703 -0.18537123501300812
-0.10064122080802917 0.13484114408493042 0.3604086637496948
0.07285284996032715 -0.0760108083486557 -0.11753252148628235
-0.058150023221969604 0.10711685568094254 0.15146447718143463
-0.08306501805782318 0.08964620530605316 -0.014021734707057476
-0.0918717309832573 0.0992547795176506 -0.022315653041005135
0.06149505078792572 -0.09420283138751984 0.2668289244174957
-0.01436600647866726 -0.09098735451698303 0.01096383947879076
-0.0851311907172203 0.07791633903980255 0.024545792490243912
0.02600119076669216 -0.09975431859493256 -0.15117917954921722
-0.08412682265043259 -0.06329038739204407 0.04519635811448097
-0.11928612738847733 0.02089795097708702 -0.03256871551275253
-0.0857798308134079 0.025685034692287445 0.11606281995773315
-0.12250873446464539 0.026677552610635757 0.3246615529060364
0.10215960443019867 -0.09394388645887375 -0.06861241161823273
-0.09488937258720398 -0.044495590031147 0.007550080306828022
0.018016990274190903 -0.09135511517524719 0.02877821959555149
0.09341873973608017 -0.062304627150297165 -0.015533569268882275
0.09778666496276855 -0.056816466152668 0.013302205130457878
-0.11899307370185852 0.06188870593905449 -0.01394929364323616
-0.06622588634490967 -0.03889325261116028 -0.027042094618082047
0.02095162123441696 -0.11495944112539291 -0.011527524329721928
0.08913397043943405 -0.05771367996931076 0.0027439892292022705
0.02527027204632759 -0.09152784943580627 0.12459855526685715
0.09668244421482086 -0.06977775692939758 -0.030410921201109886
-0.06481537222862244 0.08791142702102661 -0.3014312982559204
-0.10253158956766129 0.04949501156806946 -0.008781444281339645
-0.04692574217915535 -0.08180418610572815 -0.043656595051288605
-0.00861172191798687 -0.108891561627388 0.055228229612112045
-0.027400897815823555 0.23376412689685822 0.3489297330379486
0.0905010774731636 -0.05309050902724266 -0.005193439777940512
-0.07043410837650299 -0.10011845827102661 -0.07503712177276611
0.10165052115917206 -0.05793539807200432 -0.0015139663591980934
-0.09153571724891663 0.06569114327430725 0.05026039853692055
-0.07475238293409348 0.10567969083786011 0.05597797781229019
-0.08154222369194031 0.0961807519197464 0.026631560176610947
0.02407015673816204 -0.11634018272161484 0.3620128035545349
-0.07151231169700623 0.11190015077590942 0.32361900806427
-0.10710062086582184 0.0867505893111229 0.2310360223054886
-0.07293034344911575 -0.05543398857116699 0.04772891104221344
0.01697343774139881 -0.09749874472618103 0.03426866978406906
-0.04574683681130409 -0.08630212396383286 -0.031109385192394257
-0.09785447269678116 -0.0357833132147789 -0.05059275031089783
-0.09681521356105804 0.08070717006921768 -0.016715707257390022
-0.10891096293926239 0.04868874326348305 0.026325277984142303
-0.10140679776668549 -0.047656625509262085 0.33056628704071045
0.10250785946846008 -0.06704529374837875 -0.04460223764181137
-0.07345452904701233 0.1183297336101532 0.08742155879735947
-0.04125885292887688 0.1292479932308197 0.003007763996720314
-0.030838750302791595 -0.10499701648950577 -0.04894561320543289
0.006481567397713661 -0.09411986172199249 0.015239881351590157
0.06850668787956238 -0.06335962563753128 0.0448991134762764
-0.08706948161125183 0.07663950324058533 -0.012727255932986736
-0.06727674603462219 -0.06188695877790451 -0.03868377208709717
-0.00484185665845871 -0.09648836404085159 0.010450543835759163
-0.08858373016119003 0.0816030502319336 0.10181279480457306
0.019218197092413902 -0.11713414639234543 0.016174284741282463
-0.07087700814008713 -0.03486766293644905 -0.3229878544807434
-0.07002058625221252 -0.059014737606048584 -0.205953910946846
-0.06892218440771103 0.04845445975661278 -0.16278260946273804
-0.07091877609491348 -0.02261391282081604 0.046018775552511215
-0.10078441351652145 0.06231548637151718 0.2601555585861206
-0.11771152913570404 0.025354955345392227 -0.002734662964940071
0.09673511236906052 -0.05437041074037552 -0.011646658182144165
-0.06790846586227417 0.0612650066614151 -0.038355838507413864
-0.06533887982368469 0.11705043166875839 0.08391766250133514
-0.11958856880664825 0.04282870143651962 0.07243280857801437
0.0843220204114914 -0.07865010201931 -0.026857461780309677
0.04963095486164093 -0.09425809979438782 0.12804733216762543
-0.0627349466085434 -0.06729753315448761 -0.03608764708042145
-0.08997299522161484 0.11544722318649292 0.05258637294173241
0.10183677822351456 -0.0594647042453289 0.001257026568055153
-0.04341322183609009 -0.0914994478225708 -0.04438982903957367
-0.09526939690113068 -0.019694242626428604 -0.02024173177778721
0.09949744492769241 -0.05658310279250145 -0.0041573671624064445
0.07756474614143372 -0.07210882008075714 -0.018243301659822464
0.057894762605428696 -0.10120256245136261 -0.022732526063919067
-0.10921135544776917 0.04280877113342285 0.19147905707359314
0.013907669112086296 0.0574353002011776 0.23629382252693176
-0.08472558856010437 -0.0523044727742672 -0.051260728389024734
-0.07389381527900696 0.0970757007598877 0.26881417632102966
0.004044783301651478 -0.08817729353904724 0.21697422862052917
-0.07265396416187286 -0.049621980637311935 -0.044082656502723694
0.0052229268476367 -0.11297833919525146 -0.03527732938528061
0.08152173459529877 -0.07040054351091385 0.16313616931438446
-0.11503684520721436 0.030412664636969566 0.0452997088432312
-0.022206300869584084 -0.11028633266687393 0.0742100328207016
-0.027606746181845665 -0.09013373404741287 -0.10029129683971405
-0.07050325721502304 -0.06741105020046234 0.06468182802200317
-0.07463736087083817 -0.07678501307964325 -0.0662737563252449
-0.10529027134180069 -0.025030259042978287 -0.03479912132024765
0.14277182519435883 -0.04623187705874443 0.05920939892530441
0.03551792725920677 -0.035301998257637024 -0.31120797991752625
-0.0830446258187294 0.10025608539581299 0.04571482539176941
0.055710941553115845 -0.1021275594830513 -0.028507865965366364
-0.0043028295040130615 -0.09002543985843658 0.007410965859889984
-0.09273415803909302 0.09173373878002167 0.179374098777771
-0.11391205340623856 0.06550416350364685 -0.047196775674819946
-0.08877649903297424 0.09623861312866211 -0.019892267882823944
0.01909353770315647 -0.10148012638092041 0.005672777071595192
-0.0510813444852829 -0.07890045642852783 -0.10399716347455978
-0.1202704906463623 -0.024056656286120415 0.03966373950242996
0.0615285262465477 -0.09191859513521194 -0.028381261974573135
0.09651866555213928 -0.0595775730907917 -0.005892504006624222
0.03238282352685928 -0.08712552487850189 0.03930887579917908
-0.10622468590736389 -0.03564278408885002 -0.0538700670003891
-0.07420922070741653 0.0799299106001854 0.2332240492105484
0.07387466728687286 -0.10049641132354736 0.2187359482049942
0.09236607700586319 -0.057776764035224915 -0.01752650737762451
-0.058194320648908615 -0.08201580494642258 -0.17777356505393982
-0.07994133979082108 0.030384697020053864 -0.11868664622306824
-0.09010910242795944 0.09829980880022049 0.30681270360946655
-0.08501573652029037 0.05365137755870819 -0.19879545271396637
0.11577758938074112 -0.05281858146190643 0.03512752056121826
-0.05139972269535065 -0.08521214127540588 -0.04490748047828674
-0.05726538226008415 0.11898596584796906 -0.020576491951942444
-0.08406050503253937 0.1040724366903305 0.024770068004727364
-0.07066182792186737 0.11182709783315659 0.05580039694905281
-0.0501139871776104 -0.01248436700552702 -0.21031516790390015
0.05459727346897125 -0.11240722984075546 0.2894280254840851
-0.07277414947748184 -0.05544557422399521 0.044064249843358994
-0.11192531138658524 0.04906820133328438 -0.010293291881680489
-0.0922463908791542 0.08450634777545929 -0.012946958653628826
-0.06914830207824707 0.10610415786504745 0.10751334577798843
0.08506102859973907 -0.041317690163850784 -0.22845087945461273
-0.06587300449609756 0.08130358904600143 0.015935558825731277
0.0008670352399349213 -0.08708642423152924 -0.30931103229522705
-0.08318264037370682 0.10341140627861023 -0.050701484084129333
-0.0969051644206047 -0.04149913787841797 0.021762557327747345
-0.07883618772029877 0.09062257409095764 0.06617385149002075
-0.12325964123010635 -0.003421246074140072 -0.08441315591335297
-0.10566359013319016 -0.011202488094568253 0.22552204132080078
-0.019660664722323418 -0.09105467051267624 0.00789254903793335
0.06128264218568802 -0.07824323326349258 -0.003075973130762577
-0.08453196287155151 0.1278335452079773 0.10637715458869934
0.0937189981341362 -0.06686048209667206 -0.09166213870048523
-0.13109079003334045 0.03365861624479294 0.3899626135826111
-0.07938334345817566 -0.05818718299269676 0.06274579465389252
-0.07559596002101898 0.11429785192012787 -0.07722341269254684
0.10214114189147949 -0.03536205366253853 0.05571290850639343
-0.06418970972299576 0.12426882237195969 0.22893357276916504
0.09705048054456711 -0.05025818943977356 -0.0010739522986114025
-0.11736035346984863 -0.020347021520137787 0.06396206468343735
-0.07753235101699829 0.16432930529117584 -0.1755925565958023
-0.017789779230952263 -0.09963598847389221 -0.028348207473754883
-0.04825449362397194 -0.08773808181285858 -0.03913431987166405
-0.05709640681743622 -0.09536408632993698 -0.03949878364801407
0.047276366502046585 -0.12116049230098724 -0.14699183404445648
-0.1264253556728363 0.04437414929270744 -0.0477161705493927
-0.10564607381820679 0.045623570680618286 0.011699347756803036
0.0027436641976237297 -0.10082952678203583 0.013025792315602303
0.10453129559755325 -0.04889821261167526 -0.04751868546009064
-0.07496126741170883 0.15945324301719666 -0.2484104037284851
-0.057721443474292755 0.11071456223726273 0.06277252733707428
-0.08136433362960815 0.0914202332496643 0.02882455289363861
-0.11253073811531067 0.03272351622581482 0.032591525465250015
0.0731043666601181 -0.06830375641584396 -0.006451576016843319
-0.062382012605667114 0.12038075178861618 0.0695427656173706
0.036945804953575134 -0.0875265821814537 -0.10493794828653336
-0.016774950549006462 -0.08787175267934799 0.11784401535987854
-0.07409816980361938 -0.03923911973834038 0.15124154090881348
-0.031081650406122208 -0.091475710272789 0.3190514147281647
-0.1150098517537117 0.05853629857301712 0.27773213386535645
-0.08075764775276184 -0.05303313955664635 -0.04364224523305893
0.015805920585989952 -0.09697521477937698 0.003882307792082429
0.09349802136421204 -0.07312493026256561 -0.017977537587285042
0.09265531599521637 -0.07301250100135803 -0.09020024538040161
0.03762919455766678 -0.1045384332537651 0.34358876943588257
-0.0634227842092514 0.10456869006156921 0.08097842335700989
-0.05090701952576637 -0.08584068715572357 -0.04578427970409393
0.08994725346565247 -0.06921153515577316 0.2537359595298767
0.03201117366552353 -0.06389348953962326 -0.18354631960391998
-0.07339634746313095 -0.03937869518995285 -0.04302862286567688
0.1078995019197464 -0.04831046238541603 0.09530705958604813
-0.023925259709358215 0.09906049072742462 -0.26556840538978577
0.062174052000045776 -0.08090908825397491 -0.008159304037690163
-0.00035908608697354794 -0.09816177189350128 0.05243351310491562
-0.08114132285118103 -0.056589994579553604 -0.058027274906635284
0.01151998620480299 -0.08996205031871796 -0.20808503031730652
0.09972601383924484 -0.05812951177358627 -0.08661829680204391
-0.03750254213809967 -0.08407898992300034 -0.2545684278011322
-0.10613234341144562 0.022695213556289673 0.0027482174336910248
-0.010333222337067127 -0.08722330629825592 0.015585806220769882
-0.07165637612342834 -0.07678181678056717 -0.019555775448679924
0.0560058131814003 -0.08657778054475784 -0.0835048109292984
-0.07701040804386139 -0.04605293273925781 -0.030481282621622086
-0.10970544815063477 -0.036062173545360565 0.2891767919063568
0.06709451973438263 -0.09862849861383438 0.2260691374540329
-0.08632175624370575 0.09811554849147797 0.024011345580220222
0.08363725244998932 -0.0697646290063858 0.022198105230927467
-0.07326521724462509 -0.06708963960409164 0.08676822483539581
0.05933719128370285 -0.08748769760131836 0.19016414880752563
-0.08115732669830322 -0.05328499525785446 -0.03988172113895416
-0.011385628953576088 -0.09414716809988022 0.1827441304922104
-0.10583102703094482 0.03775715082883835 0.09174070507287979
0.02090245485305786 -0.10426218062639236 -0.051550012081861496
-0.0017855055630207062 -0.03986978158354759 -0.2697123885154724
-0.048758067190647125 -0.08347934484481812 0.27233922481536865
-0.11435700953006744 0.028851322829723358 -0.06162206828594208
0.09565059095621109 -0.060670867562294006 0.08105438947677612
0.09336874634027481 -0.06337031722068787 -0.005118301138281822
-0.06047787517309189 0.11420124769210815 0.06498080492019653
0.10009823739528656 -0.05222785472869873 -0.004233108833432198
0.09686210751533508 -0.06745651364326477 -0.005038084462285042
-0.002386871725320816 -0.09129723906517029 0.008538131602108479
-0.114845409989357 -0.02096245437860489 -0.13803857564926147
-0.0304710790514946 -0.0864097848534584 0.27018600702285767
0.08489427715539932 -0.08137185871601105 -0.025462783873081207
0.00639822892844677 -0.09659487754106522 0.009861843660473824
0.09283973276615143 -0.06708309054374695 -0.03565733879804611
-0.016797251999378204 -0.09861746430397034 -0.06019365042448044
0.06254430115222931 -0.08747835457324982 0.10361476242542267
0.03855714574456215 -0.08789999037981033 -0.022109443321824074
-0.06344150006771088 0.10128671675920486 0.08302175998687744
-0.11416745185852051 -0.00924193486571312 -0.2641933858394623
-0.04332498088479042 0.12030971795320511 0.05647873505949974
-0.1159849613904953 -0.016372075304389 0.018017444759607315
-0.11023569107055664 0.016783881932497025 0.1603640764951706
-0.031110985204577446 -0.11397986114025116 0.12271764129400253
0.06073782593011856 -0.0751216858625412 0.058486323803663254
-0.07014067471027374 0.08508141338825226 0.058035608381032944
0.06285412609577179 -0.06755886971950531 0.286893367767334
-0.09089077264070511 -0.05825783312320709 0.2770298421382904
-0.12650008499622345 0.0005538966506719589 0.28462645411491394
0.02074037306010723 -0.0872618556022644 0.00893598236143589
-0.11142028868198395 0.026873257011175156 0.09338200837373734
0.04532221704721451 -0.09863611310720444 0.24216216802597046
0.08695771545171738 -0.0609288364648819 -0.08449606597423553
0.055781666189432144 -0.010760629549622536 -0.3639727532863617
-0.0835983082652092 0.14852316677570343 -0.06969965994358063
-0.06736984848976135 0.12192589789628983 0.06043493002653122
0.05023913085460663 -0.10792683809995651 0.09022395312786102
-0.056935153901576996 0.11519850045442581 0.06965118646621704
-0.10396121442317963 -0.020432354882359505 0.12648220360279083
-0.07997945696115494 -0.05132800340652466 -0.05907917022705078
0.056737013161182404 -0.10228338837623596 0.029754217714071274
-0.11682530492544174 0.044309038668870926 -0.011498784646391869
-0.07225748151540756 0.09800560027360916 -0.1094113141298294
0.10828942060470581 -0.05326424539089203 0.012280533090233803
-0.08623828738927841 0.08496815711259842 0.13313274085521698
0.10244253277778625 -0.04828513413667679 0.1594056338071823
0.08681096136569977 -0.06526296585798264 -0.008236868306994438
-0.029693929478526115 -0.07631416618824005 -0.2081051915884018
0.19090354442596436 -0.060330748558044434 0.14341643452644348
0.10123572498559952 -0.057574544101953506 -0.0015133582055568695
-0.0515885166823864 0.09883806109428406 0.07565049827098846
-0.04491652920842171 -0.08348431438207626 -0.040182311087846756
-0.02396172657608986 -0.10805010795593262 -0.13310931622982025
0.006399113684892654 -0.08222696930170059 0.10329881310462952
0.004615176469087601 -0.09788639098405838 0.0187967699021101
-0.011324170976877213 -0.09525982290506363 0.32899555563926697
-0.01100737601518631 -0.08100961893796921 -0.12984409928321838
0.0965612605214119 -0.08478352427482605 0.1077469140291214
-0.10902812331914902 0.0654202252626419 -0.09939231723546982
-0.012257872149348259 -0.095550537109375 0.013066628947854042
-0.12094203382730484 0.058630261570215225 0.30936694145202637
-0.0695965513586998 0.10538039356470108 0.11798585951328278
-0.06879991292953491 0.10071667283773422 0.08060946315526962
-0.11643407493829727 0.017488449811935425 0.07811947911977768
-0.0746815949678421 0.1087627038359642 0.3874970078468323
-0.07282798737287521 0.08863475918769836 -0.08856798708438873
0.04020403325557709 -0.08435890078544617 -0.017131958156824112
-0.06303432583808899 0.1054592877626419 0.026844365522265434
-0.06897862255573273 -0.05916401371359825 0.03677573800086975
0.088887058198452 -0.058807648718357086 0.01619400829076767
0.06880193948745728 -0.08329479396343231 0.1203678548336029
-0.07329557836055756 0.09123174846172333 0.16134563088417053
-0.02200045995414257 -0.09378732740879059 -0.051117219030857086
0.14691968262195587 -0.06352395564317703 0.1575014889240265
-0.06749288737773895 0.11718520522117615 -0.08043855428695679
-0.06072454899549484 0.1294558346271515 0.32970476150512695
0.10031784325838089 -0.05371489375829697 -0.10473449528217316
-0.08284203708171844 0.10116857290267944 0.05372083932161331
0.02079731598496437 -0.08643677830696106 0.05796753615140915
-0.10491464287042618 0.005713850259780884 0.02545197121798992
