0.12836116552352905 -0.06451015174388885 0.17903432250022888
0.06558599323034286 -0.07247796654701233 -0.1265600174665451
-0.04356956481933594 -0.0661253035068512 -0.008829100988805294
0.05624395236372948 -0.0831824392080307 0.0307596568018198
-0.09027086943387985 -0.05973165109753609 0.0588262714445591
-0.08454481512308121 0.16156788170337677 -0.09584109485149384
-0.08402302861213684 0.08214446157217026 -0.020392680540680885
-0.033460669219493866 0.20590946078300476 0.084007129073143
0.26775720715522766 -0.06818770617246628 0.13954943418502808
-0.10603801161050797 0.03847353160381317 0.0848824605345726
0.10218070447444916 -0.06654763221740723 0.07806440442800522
-0.10387837886810303 0.07050624489784241 0.026742901653051376
-0.09118896722793579 0.0896749198436737 -0.18777483701705933
-0.025688834488391876 -0.11247020959854126 0.44113728404045105
-0.0884159728884697 0.13325701653957367 0.043951574712991714
-0.07790768146514893 -0.06835753470659256 -0.01541653461754322
0.022214137017726898 -0.10660266876220703 -0.016924472525715828
-0.09517066180706024 0.11525475233793259 -0.20803533494472504
0.050212740898132324 -0.0841899961233139 -0.2989828586578369
-0.11353535205125809 0.026713579893112183 0.026103364303708076
0.17037096619606018 -0.08629493415355682 0.14314132928848267
-0.05476317182183266 -0.08661806583404541 0.12581565976142883
0.13508711755275726 -0.08528388291597366 0.44120416045188904
-0.0824112743139267 0.22660332918167114 0.1440305858850479
-0.0806308463215828 0.15923389792442322 0.18006592988967896
-0.09009561687707901 0.07071983814239502 0.10038964450359344
-0.10798145830631256 0.12060149759054184 0.10731931775808334
-0.12548744678497314 0.026295389980077744 0.0018398622050881386
-0.008164951577782631 -0.1136830523610115 0.04052580147981644
-0.060762301087379456 -0.08477179706096649 -0.03853866830468178
-0.09423796832561493 -0.03676716983318329 -0.08279938995838165
-0.12446242570877075 0.02071193978190422 0.03205534815788269
-0.12610389292240143 0.05465833097696304 0.18868911266326904
-0.12479937076568604 0.07693945616483688 -0.019203349947929382
-0.11766760051250458 -0.005000734701752663 0.05354245752096176
0.13292165100574493 -0.07233978807926178 -0.13735052943229675
-0.07602088898420334 0.03201378509402275 0.03842564672231674
-0.0638008639216423 -0.05400443822145462 0.12455714493989944
-0.1197875589132309 0.09658573567867279 -0.18778689205646515
-0.10934807360172272 0.09700588881969452 0.022667886689305305
-0.10107409209012985 0.10151223093271255 0.20758071541786194
-0.07894851267337799 -0.05603223294019699 0.09489183127880096
-0.09649517387151718 0.10049057006835938 -0.08654358237981796
0.001683514565229416 -0.07500120252370834 0.07635635137557983
-0.10712702572345734 0.09953288733959198 -0.010766224004328251
-0.07002390921115875 0.02707231417298317 -0.09493041038513184
-0.05312902107834816 -0.06221615523099899 -0.211466446518898
-0.1190926730632782 0.036921169608831406 0.00842263363301754
0.12396851181983948 -0.05712839961051941 0.3303183615207672
-0.11941603571176529 0.10278536379337311 -0.08725278079509735
-0.09428982436656952 -0.011761863715946674 0.05440398305654526
-0.08350352942943573 -0.06218205392360687 -0.11916781961917877
-0.06379523873329163 0.1255023330450058 0.2346057891845703
0.10685759037733078 -0.04195425659418106 0.2408827692270279
-0.07877504825592041 0.019304906949400902 0.06996277719736099
-0.028027741238474846 -0.08105893433094025 -0.04423891007900238
0.019724059849977493 -0.13535118103027344 -0.19451051950454712
0.08338820934295654 -0.10019803047180176 0.30084162950515747
-0.012372877448797226 -0.06399813294410706 -0.12178416550159454
-0.11616374552249908 0.04275121912360191 0.10892149806022644
-0.09080240875482559 -0.08813431113958359 0.43797245621681213
0.07285073399543762 -0.0842386856675148 0.016084302216768265
-0.10990573465824127 0.11926130950450897 0.03832505643367767
-0.07547883689403534 -0.013742262497544289 -0.004077796824276447
-0.07498694211244583 0.15919212996959686 0.035055164247751236
-0.11377348005771637 -0.042960770428180695 -0.10883738100528717
-0.10923492908477783 0.030268419533967972 -0.023381520062685013
0.25784504413604736 -0.07804474234580994 0.3559047281742096
0.07891499996185303 -0.06238267198204994 -0.2778887450695038
-0.07342652231454849 -0.05817674100399017 0.07308585941791534
0.18655842542648315 -0.09789666533470154 0.4154245853424072
-0.12186218798160553 -0.03252311050891876 -0.10368376970291138
0.10316192358732224 -0.015697652474045753 0.06394030153751373
0.07437464594841003 -0.10048621892929077 0.1354183554649353
-0.09753201901912689 0.1303229182958603 0.04961220175027847
-0.09834577888250351 0.052196308970451355 -0.05725310742855072
0.13393330574035645 -0.07460637390613556 -0.09083431959152222
-0.09769290685653687 0.15039965510368347 -0.05068977177143097
0.06825819611549377 -0.11186633259057999 0.0523078478872776
0.14922209084033966 -0.013375574722886086 -0.029553038999438286
-0.08329479396343231 0.14849844574928284 -0.01882132515311241
-0.10506628453731537 0.13984891772270203 0.08100603520870209
0.10234495252370834 -0.07423699647188187 0.07460706681013107
0.0880756825208664 -0.0974179208278656 0.11331894248723984
-0.10604049265384674 -0.07356917858123779 0.3656828999519348
-0.09264983981847763 -0.03496861457824707 0.25304242968559265
0.11999469995498657 -0.04221170395612717 0.07612057775259018
-0.08521802723407745 0.15952718257904053 0.10517876595258713
-0.058725036680698395 -0.041012365370988846 0.0889657735824585
0.20574656128883362 -0.026179097592830658 0.2881806194782257
0.12489422410726547 -0.07831069827079773 0.12967556715011597
-0.1025882214307785 0.029226606711745262 0.13928231596946716
-0.06823833286762238 0.11920682340860367 -0.11520873010158539
-0.09971189498901367 -0.057890236377716064 -0.04727210849523544
0.11734853684902191 -0.06885047256946564 0.009081549942493439
-0.1072022020816803 -0.025479603558778763 -0.010103578679263592
0.07263548672199249 -0.08481425046920776 -0.012749243527650833
0.00972055271267891 -0.09909147769212723 0.00403212383389473
-0.07278245687484741 -0.12364683300256729 0.2712598145008087
-0.0779181495308876 -0.00022290460765361786 0.01654328778386116
0.07964586466550827 -0.09678522497415543 -0.06996746361255646
0.018243620172142982 -0.09466341137886047 0.006841990165412426
0.04555101692676544 -0.08188364654779434 -0.052236057817935944
0.05189639329910278 -0.06465662270784378 0.043870776891708374
-0.0909031555056572 -0.012625960633158684 -0.22647276520729065
-0.10764248669147491 0.12559737265110016 -0.023433059453964233
-0.1326153576374054 0.06496278941631317 -0.10619249194860458
-0.082267627120018 0.16340088844299316 0.028808999806642532
-0.01863744854927063 -0.06749773025512695 -0.03538715839385986
0.08922860026359558 -0.10783200711011887 0.06644736975431442
-0.07658056169748306 -0.06883455812931061 -0.05054154992103577
0.03378686308860779 -0.09510461986064911 0.08528430014848709
-0.03460918366909027 -0.1210561990737915 0.024066518992185593
-0.07352543622255325 -0.05668060481548309 -0.053352680057287216
0.06121506914496422 -0.1077747568488121 -0.08981042355298996
-0.098281130194664 0.13218821585178375 -0.036282978951931
-0.07649693638086319 0.06701371818780899 0.1650785356760025
0.10134904086589813 -0.0776166319847107 0.0645088255405426
0.06633345782756805 -0.048303209245204926 -0.055347833782434464
-0.11139995604753494 0.08053231239318848 0.15291330218315125
-0.12271387875080109 0.05875563994050026 0.21825829148292542
0.10915544629096985 -0.07161182910203934 -0.14992886781692505
-0.016294199973344803 -0.0674441009759903 0.008629848249256611
-0.07951197028160095 0.0888032391667366 0.032339636236429214
-0.08101312071084976 -0.0831417366862297 -0.11256226897239685
0.11248702555894852 -0.06445667147636414 0.006954187992960215
-0.05075706169009209 -0.06218799948692322 -0.15453729033470154
-0.10720166563987732 0.04079378396272659 0.11572012305259705
-0.08559487015008926 0.05805857852101326 -0.04765414446592331
-0.0018386319279670715 -0.0844155102968216 -0.23048552870750427
-0.07668779790401459 0.11440121382474899 0.0278310626745224
-0.09331317245960236 0.12981216609477997 -0.06150923669338226
-0.09359954297542572 -0.056150127202272415 0.019057808443903923
0.08533133566379547 -0.07600707560777664 -0.04020039364695549
-0.1280379742383957 0.10274413973093033 -0.05038825422525406
0.02696090191602707 -0.07666242122650146 0.02105765976011753
0.0465233139693737 -0.10968823730945587 0.4413531720638275
-0.12067314237356186 0.0014591943472623825 0.18904082477092743
0.06976520270109177 -0.07424008846282959 0.24154064059257507
-0.12793608009815216 0.06872349977493286 -0.20093321800231934
-0.1145644560456276 0.14936889708042145 0.062809519469738
-0.023373035714030266 -0.11030803620815277 -0.31402409076690674
-0.007901912555098534 -0.08763670921325684 0.00517311692237854
-0.05983187258243561 0.054861247539520264 -0.3638092875480652
-0.09342131018638611 0.07833424210548401 0.1679459512233734
0.08073244243860245 -0.08539418876171112 0.005283655598759651
-0.07819226384162903 0.04128619283437729 0.3032461404800415
-0.0753009021282196 0.1285635530948639 0.11243397742509842
0.051640890538692474 -0.1175023689866066 -0.03716384619474411
-0.11761370301246643 0.03842722252011299 -0.07831861078739166
-0.08948784321546555 0.0924113392829895 0.08709484338760376
-0.0008293874561786652 -0.053763918578624725 0.11903930455446243
0.11867377907037735 -0.09500977396965027 -0.4159144461154938
-0.06989014148712158 -0.08879977464675903 -0.26243510842323303
-0.10266762971878052 -0.006377228535711765 -0.33036738634109497
-0.07689295709133148 -0.07727967947721481 -0.03345590829849243
0.08069155365228653 -0.10241018235683441 -0.032057881355285645
-0.1223033145070076 0.05134027451276779 0.06242285668849945
-0.08138155937194824 0.043126896023750305 0.11828973889350891
0.10677903890609741 -0.0893082320690155 -0.07684390246868134
-0.053862787783145905 0.16690728068351746 -0.05449000746011734
-0.09852152317762375 -0.05733918026089668 -0.018086036667227745
-0.08964554220438004 0.07127977162599564 0.03235965967178345
-0.0744846984744072 -0.040902502834796906 0.025524020195007324
-0.020896421745419502 -0.09571195393800735 -0.06226225197315216
-0.10773361474275589 -0.046830929815769196 -0.0736110657453537
-0.10002920776605606 0.11557500064373016 0.26892760396003723
-0.04005678743124008 -0.08688637614250183 0.15366479754447937
-0.11856639385223389 -0.026433123275637627 0.3516264855861664
-0.025000354275107384 -0.10779447108507156 0.28472962975502014
0.1560320258140564 -0.035907186567783356 -0.013933785259723663
0.18317867815494537 0.002631516195833683 0.4053846299648285
-0.02584821917116642 -0.06526364386081696 -0.1367569863796234
0.07094953209161758 -0.09549736976623535 -0.06861439347267151
0.12384434789419174 -0.06657882034778595 -0.007417683489620686
-0.07860148698091507 0.14066028594970703 -0.10519267618656158
-0.048333413898944855 0.10971146821975708 0.005677256733179092
0.13507768511772156 -0.0836140513420105 -0.08466379344463348
0.1646365523338318 -0.0933958888053894 0.35000160336494446
0.1370207816362381 -0.078464075922966 -0.2218986600637436
-0.05431821569800377 0.18929706513881683 0.3032541871070862
0.07621464878320694 -0.08799844980239868 0.04013531655073166
-0.1428149789571762 0.018203774467110634 -0.10630209743976593
0.009452585130929947 -0.10359281301498413 -0.027068961411714554
0.27046293020248413 -0.06396719068288803 0.055311549454927444
-0.10049605369567871 0.24720998108386993 -0.04202883690595627
-0.08541756868362427 0.03848322108387947 0.07009700685739517
-0.07321224361658096 0.02769380621612072 0.07200915366411209
-0.06249773129820824 -0.08916183561086655 -0.20475497841835022
-0.0920543223619461 -0.056148841977119446 0.0597325898706913
-0.07963543385267258 0.08542430400848389 0.03400431200861931
-0.08914650976657867 0.09727311134338379 -0.005954429507255554
-0.07422791421413422 -0.055522069334983826 -0.0314653180539608
-0.07091125845909119 -0.04869663715362549 0.3060433268547058
0.009825433604419231 -0.10795257985591888 -0.1497134417295456
0.13055022060871124 -0.06352272629737854 0.04059924930334091
-0.029300345107913017 -0.05960523337125778 -0.20211508870124817
0.005417469888925552 -0.08207077533006668 0.04804385453462601
-0.10398022830486298 -0.0692497119307518 -0.20699644088745117
-0.061636291444301605 0.15945614874362946 -0.22522898018360138
-0.029272006824612617 -0.08896083384752274 -0.05056716501712799
-0.09222014248371124 0.11441941559314728 -0.1201314628124237
0.13642221689224243 -0.08977597951889038 -0.3109462857246399
-0.07051487267017365 0.10063207149505615 0.09173434227705002
0.01846715621650219 -0.07416954636573792 0.16129030287265778
0.04662616550922394 -0.0927809327840805 -0.12411140650510788
-0.1034965068101883 0.08421524614095688 0.029619621112942696
-0.0802803710103035 -0.0015354249626398087 0.053538743406534195
-0.10152353346347809 0.07774100452661514 0.13201338052749634
-0.050940632820129395 -0.09270823746919632 0.14571166038513184
-0.08566079288721085 -0.06513119488954544 0.10292348265647888
-0.053621962666511536 0.18128876388072968 -0.004327333532273769
0.02441735751926899 -0.09601593017578125 0.020129315555095673
-0.0631478875875473 -0.08195812255144119 -0.04740706831216812
0.04969048872590065 -0.10681483149528503 0.012220027856528759
-0.12575462460517883 0.04930820316076279 -0.04218432679772377
-0.013879664242267609 -0.07866769284009933 -0.04979979991912842
0.10010530799627304 -0.09639929980039597 0.17549891769886017
0.11501120030879974 -0.08790598064661026 0.005212863907217979
-0.12513533234596252 0.14105267822742462 -0.016518838703632355
-0.1021086722612381 0.05681544542312622 0.16919393837451935
-0.05085304379463196 -0.10648904740810394 0.07667312771081924
-0.06647352874279022 -0.09362427890300751 0.35725679993629456
-0.04314541071653366 -0.09204262495040894 -0.03418513387441635
-0.029743751510977745 -0.11095878481864929 0.08945469558238983
-0.0834888368844986 -0.04499867558479309 -0.1286577582359314
-0.09330015629529953 -0.01114826463162899 -0.14239190518856049
0.07249194383621216 -0.08347149193286896 0.04918958246707916
-0.07828228175640106 -0.05184173211455345 -0.03542773053050041
-0.06811758130788803 0.1293984353542328 0.11844419687986374
-0.06019410490989685 0.12190047651529312 -0.28176552057266235
-0.08660564571619034 0.09509138762950897 -0.22360451519489288
-0.09905513375997543 0.09968237578868866 -0.20215484499931335
-0.120115727186203 0.0542403906583786 -0.1700357347726822
-0.06815904378890991 -0.07811696827411652 0.07246622443199158
-0.09568171203136444 0.11588273197412491 -0.017150754109025
-0.0711616799235344 -0.07458847761154175 -0.034110426902770996
-0.09019387513399124 0.08840011060237885 0.1598222404718399
-0.13236579298973083 0.09627540409564972 0.32746872305870056
-0.07239636778831482 -0.009130888618528843 -0.10695823282003403
-0.09182491898536682 0.13692525029182434 -0.16263948380947113
-0.09500614553689957 -0.08912689983844757 0.10765170305967331
0.07291106134653091 -0.06823883950710297 0.0319795124232769
-0.09050697833299637 0.06456698477268219 -0.1568409502506256
-0.07969289273023605 -0.052122555673122406 0.04829536750912666
-0.08571814745664597 -0.06601253896951675 0.02432236447930336
0.04549185186624527 -0.11129840463399887 0.33861109614372253
-0.118690624833107 -0.07439495623111725 0.21504957973957062
0.043108031153678894 -0.10626320540904999 -0.01180966105312109
-0.07843832671642303 0.09504520893096924 0.03187229111790657
0.08417756110429764 -0.0626552551984787 -0.18013465404510498
-0.0542701780796051 -0.07871198654174805 -0.21661505103111267
-0.07884685695171356 0.0007013622671365738 0.2309568226337433
-0.0671476200222969 -0.08442242443561554 -0.16367074847221375
0.055132411420345306 -0.10926639288663864 -0.09116916358470917
-0.014986181631684303 -0.06504595279693604 -0.07076545804738998
0.12254366278648376 -0.03301575779914856 -0.055367495864629745
-0.09189898520708084 -0.06684046238660812 -0.1880563497543335
0.061510466039180756 -0.07637447863817215 0.009229592978954315
0.046552710235118866 -0.08769867569208145 -0.011860252358019352
-0.11902859061956406 -0.03881330043077469 0.034550927579402924
-0.10876378417015076 0.10649855434894562 -0.009506892412900925
-0.11369262635707855 0.07554943859577179 0.19517013430595398
0.39173969626426697 0.0745660662651062 0.31763020157814026
-0.0739995464682579 -0.061604537069797516 0.04601788520812988
-0.11815501749515533 0.07937733083963394 -0.28099530935287476
0.09091350436210632 -0.0806228443980217 0.1440405398607254
-0.07681860029697418 0.1688179075717926 -0.019115310162305832
0.037511467933654785 -0.1253923624753952 -0.24810791015625
-0.09216686338186264 0.11107039451599121 0.08780352771282196
-0.1126507818698883 0.04660192131996155 0.04128369688987732
-0.10964243859052658 -0.017004672437906265 0.03847156837582588
-0.09761794656515121 0.17190127074718475 0.3311546742916107
-0.07910464704036713 -0.04032990336418152 0.07677656412124634
0.017464952543377876 -0.0746958777308464 0.07981142401695251
-0.08389753848314285 -0.017960697412490845 -0.20026838779449463
-0.11685194075107574 0.1297452449798584 -0.07632393389940262
-0.08566819131374359 -0.08518432825803757 0.17512311041355133
-0.06001226603984833 -0.09410780668258667 0.10937128961086273
-0.07206159830093384 -0.06554019451141357 -0.029202183708548546
0.005921815987676382 -0.127497136592865 -0.06687749922275543
0.11116952449083328 -0.07202373445034027 -0.08225001394748688
0.08817682415246964 -0.087715744972229 -0.08742532134056091
-0.08105365931987762 0.11660003662109375 0.15268942713737488
0.00807349942624569 -0.09754596650600433 -0.04661441594362259
-0.09868083894252777 0.09846875816583633 -0.023371849209070206
-0.02565554343163967 -0.06457842141389847 0.10244466364383698
-0.09126696735620499 0.1191398873925209 0.04999399930238724
-0.10060043632984161 -0.05885227769613266 0.07078033685684204
-0.11556311696767807 0.1173236146569252 0.14078500866889954
-0.003417566418647766 -0.0927865207195282 0.005056641064584255
0.04253746569156647 -0.09350479394197464 -0.3894636332988739
0.017705805599689484 -0.12081164866685867 -0.11739882081747055
-0.04286949336528778 0.15794645249843597 0.08745378255844116
-0.10748419165611267 0.01828189752995968 -0.2817443013191223
0.09402088075876236 -0.07878560572862625 -0.14564843475818634
-0.08731979131698608 -0.027516573667526245 0.0581124983727932
0.13427500426769257 -0.04213397949934006 -0.0596529096364975
-0.06609578430652618 -0.04677688702940941 0.03106006421148777
0.14773769676685333 -0.04573935642838478 0.183349609375
-0.07790820300579071 -0.04314886033535004 -0.0026210546493530273
0.11209547519683838 -0.08927174657583237 0.3489478826522827
0.07024538516998291 -0.1073172315955162 -0.16087549924850464
0.0178217776119709 -0.07079093158245087 0.038670580834150314
-0.10817097872495651 -0.06630723178386688 -0.00014460459351539612
-0.07998694479465485 -0.047986358404159546 -0.05112730339169502
-0.10133907943964005 0.045596666634082794 0.10114811360836029
-0.043293945491313934 -0.026689328253269196 -0.4166214168071747
0.0250661913305521 -0.08524549752473831 -0.045006491243839264
-0.06856315582990646 0.023974230512976646 0.08395767956972122
0.0029559023678302765 -0.12560716271400452 0.02167867310345173
0.10736531764268875 -0.09653934091329575 -0.13494038581848145
0.014548921957612038 -0.08331884443759918 -0.14440210163593292
-0.01650145836174488 -0.06290397047996521 -0.0009509660303592682
-0.12423509359359741 -0.03264717385172844 -0.1656937301158905
-0.08156833797693253 0.11426720023155212 0.08396123349666595
0.14894646406173706 -0.009425995871424675 0.046153947710990906
-0.10160999000072479 -0.01702384650707245 0.008997353725135326
-0.10167093575000763 -0.010555611923336983 -0.0781245231628418
-0.12616124749183655 0.07163573801517487 -0.0004950668662786484
-0.019245924428105354 -0.058578841388225555 0.22946681082248688
-0.11217429488897324 0.04412699490785599 0.28418830037117004
0.07368414103984833 -0.08524487167596817 0.38675522804260254
0.1364736557006836 -0.08401815593242645 0.12919920682907104
0.06038206070661545 -0.12620577216148376 0.28504955768585205
-0.07402630150318146 -0.06741631776094437 0.13893219828605652
0.09720093011856079 -0.06462426483631134 0.0677676573395729
0.09386076033115387 -0.07402943819761276 -0.027468634769320488
-0.07814116030931473 0.11684932559728622 0.1369708925485611
0.1921667605638504 0.009373079985380173 -0.09287133067846298
0.12088111788034439 -0.05377516895532608 -0.029246415942907333
0.0571567565202713 -0.025858044624328613 -0.4175601899623871
0.00011933781206607819 -0.060861989855766296 -0.08444774150848389
-0.08338814973831177 0.09310264140367508 0.03283043950796127
0.0362095944583416 -0.08292596787214279 -0.25855666399002075
-0.07549858838319778 -0.05193094536662102 -0.12845903635025024
-0.07507256418466568 -0.03592076152563095 -0.14875593781471252
-0.08714408427476883 -0.04903233051300049 0.0986170545220375
-0.005951289087533951 -0.10473817586898804 0.04684394598007202
-0.08127669245004654 0.13307836651802063 0.06024493649601936
-0.08229584991931915 0.14186601340770721 0.00393274798989296
0.07012911140918732 -0.06944963335990906 0.0044927154667675495
-0.0981772318482399 0.04528629407286644 0.050988730043172836
-0.11022838950157166 0.09437745809555054 -0.041032835841178894
-0.10165925323963165 0.12986934185028076 -0.004649301990866661
-0.06149532273411751 0.12867094576358795 0.05215628817677498
-0.09561462700366974 0.026375629007816315 -0.1632765680551529
-0.0954357236623764 0.09615485370159149 -0.16846951842308044
-0.0033742133527994156 -0.0727219507098198 0.0284471046179533
0.11301572620868683 -0.06523983180522919 -0.05157703161239624
-0.10119111835956573 -0.068746417760849 -0.13610431551933289
0.22238725423812866 -0.07500074058771133 -0.09155397117137909
-0.10202325135469437 -0.015781983733177185 0.05830959230661392
-0.133443221449852 0.0673431009054184 -0.06827811151742935
-0.122522734105587 0.02176411636173725 0.10488052666187286
0.05323902517557144 -0.09542049467563629 0.030067577958106995
-0.031082317233085632 -0.08012177050113678 0.11510410904884338
-0.10388744622468948 0.01951133832335472 0.019469285383820534
-0.10216024518013 0.11557812988758087 -0.08062145859003067
-0.07086367160081863 0.10515182465314865 0.08240968734025955
0.09758643805980682 -0.06499572098255157 0.024431467056274414
0.12416607141494751 -0.06628786772489548 0.10308921337127686
-0.08213414996862411 0.05560273677110672 -0.014826348051428795
0.08255466818809509 -0.05936098471283913 0.07070489227771759
0.026970896869897842 -0.08966449648141861 -0.0723864957690239
0.13296180963516235 -0.07285238802433014 0.08415649086236954
0.0490749329328537 -0.07369314134120941 0.04296276345849037
-0.09037068486213684 0.03819083422422409 -0.19648735225200653
-0.1105148121714592 0.04725485295057297 -0.02189870923757553
-0.03347756341099739 -0.09810774028301239 0.04589846730232239
-0.13132575154304504 0.04838801920413971 0.05881480500102043
-0.010386435315012932 -0.07686861604452133 -0.002436886541545391
0.059876784682273865 -0.07593701034784317 0.0021632537245750427
0.005634736269712448 -0.1282138228416443 0.14741374552249908
-0.14537812769412994 0.027226276695728302 0.3798769414424896
0.20012465119361877 0.014229988679289818 0.08201513439416885
-0.018215462565422058 0.154936745762825 0.05858834832906723
-0.06148429214954376 0.02030974067747593 -0.02112012729048729
-0.10693091154098511 0.1706310510635376 -0.17265525460243225
0.06663733720779419 -0.08192615211009979 0.12119962275028229
-0.06703188270330429 -0.06462879478931427 -0.03186161071062088
-0.09062527865171432 0.06748738139867783 -0.1257965862751007
-0.10968774557113647 0.07476764172315598 -0.194941908121109
-0.11129672080278397 0.07911279797554016 -0.004423143342137337
0.17022500932216644 -0.01810697466135025 -0.14430281519889832
-0.07221661508083344 0.1373579502105713 0.08373740315437317
-0.09977743029594421 0.0817064642906189 -0.0008831247687339783
0.03967391327023506 0.37974628806114197 0.10661965608596802
-0.08470714837312698 -0.02396314963698387 -0.018049389123916626
-0.04572620242834091 -0.06744195520877838 0.06234590709209442
-0.13598379492759705 0.04929409548640251 0.16754195094108582
0.16271980106830597 -0.08818141371011734 0.06955700367689133
0.10699398815631866 -0.05615365877747536 -0.03693227097392082
0.12007356435060501 -0.07958722114562988 0.04572639986872673
-0.06475312262773514 -0.0630810484290123 0.035149943083524704
-0.10755535215139389 -0.06890545040369034 -0.03620846942067146
-0.09538783878087997 0.06494209170341492 -0.25558051466941833
-0.07841441035270691 -0.05160430073738098 0.027324283495545387
-0.031337689608335495 0.09904307126998901 -0.25718235969543457
-0.11624297499656677 0.10517910122871399 0.057021595537662506
-0.09335548430681229 -0.001916724257171154 0.09661684930324554
-0.10894516110420227 0.08523578941822052 -0.1257440149784088
-0.0010354891419410706 -0.09168052673339844 0.11643661558628082
-0.032859917730093 -0.10070855170488358 0.03819156810641289
-0.01028299331665039 -0.06754270195960999 -0.22413361072540283
0.03255105018615723 -0.10445848107337952 0.09825292974710464
0.0577230378985405 -0.07455894351005554 -0.0029068756848573685
-0.08335063606500626 0.14375102519989014 0.25482288002967834
0.07268854975700378 -0.10072369128465652 -0.22721010446548462
-0.020766805857419968 -0.07207334041595459 -0.0615357905626297
0.06936539709568024 -0.07469819486141205 0.009610015898942947
-0.01642320677638054 -0.054821353405714035 -0.3265382945537567
0.0979272723197937 -0.09502094984054565 -0.1714709848165512
0.1927562952041626 -0.07677674293518066 -0.2236676961183548
-0.08200710266828537 -0.017900466918945312 -0.04395848512649536
-0.09235630184412003 0.037932395935058594 0.02001858688890934
-0.07589030265808105 -0.08079855144023895 -0.05806279182434082
-0.033068086951971054 0.146416574716568 0.15456776320934296
0.09057547152042389 -0.0810910165309906 0.06130780279636383
-0.07158944010734558 0.04680827260017395 0.03476172313094139
0.11913670599460602 -0.09542065858840942 -0.10434867441654205
0.05851904675364494 -0.11255095899105072 -0.11046852916479111
-0.06510674953460693 -0.07712994515895844 -0.047800637781620026
-0.05329844355583191 -0.1034078449010849 -0.10519491881132126
-0.06310609728097916 -0.1114773377776146 -0.244711235165596
-0.07706178724765778 -0.08788137882947922 -0.03046792559325695
-0.11532765626907349 -0.05359897390007973 0.023800624534487724
-0.010950209572911263 -0.09448713064193726 0.024350177496671677
-0.132360577583313 -0.0017112866044044495 -0.23103517293930054
0.12616710364818573 -0.05692660063505173 0.011088291183114052
0.05195832625031471 -0.11249441653490067 -0.20712125301361084
-0.08750816434621811 -0.06508665531873703 0.14987917244434357
-0.12077575922012329 0.14229890704154968 0.19293051958084106
-0.07395470142364502 0.15308524668216705 0.07657569646835327
-0.06855050474405289 0.1049177497625351 -0.20623797178268433
0.06542584300041199 -0.07030858099460602 0.12383981794118881
-0.08729850500822067 0.06985870003700256 -0.07121698558330536
-0.12343397736549377 0.04553195461630821 -0.010090673342347145
-0.07921046018600464 -0.06094178557395935 -0.11837905645370483
0.05175761505961418 -0.11427991092205048 -0.16258269548416138
-0.03556813299655914 -0.09612467139959335 -0.16961310803890228
-0.12458732724189758 0.05318310856819153 0.1844506561756134
-0.08875863999128342 0.1367589831352234 -0.08212491869926453
-0.12045218050479889 0.04742880165576935 0.14277920126914978
0.09141678363084793 -0.06414233148097992 -0.14025317132472992
-0.03542296588420868 0.17731425166130066 0.35351935029029846
-0.0947355329990387 -0.06681574136018753 0.011100586503744125
0.020117001608014107 -0.05644015595316887 0.06297135353088379
-0.09715399891138077 0.14952822029590607 -0.07036085426807404
0.11870092153549194 -0.056880444288253784 0.0019594598561525345
0.07073403894901276 -0.08893066644668579 0.2336728870868683
-0.09771360456943512 0.11875900626182556 0.05950039625167847
0.11156905442476273 -0.08315036445856094 0.09444014728069305
-0.08263914287090302 0.09619356691837311 0.11702090501785278
-0.06762682646512985 -0.04021245986223221 -0.07746466994285583
0.12134493887424469 -0.08207426220178604 -0.10081576555967331
0.12246768176555634 -0.06415358185768127 -0.06254566460847855
-0.09584406018257141 0.08703631162643433 0.08152011781930923
-0.07208006829023361 0.08560203015804291 -0.10599862784147263
0.026040975004434586 -0.10980802029371262 0.16353322565555573
0.189206063747406 -0.06400034576654434 0.10259625315666199
0.1546962857246399 -0.07633249461650848 -0.14863255620002747
-0.08559958636760712 0.1406450867652893 0.4283710718154907
0.030149776488542557 -0.0666171982884407 -0.033189807087183
0.08002154529094696 -0.07181558012962341 0.01803305372595787
0.05389679968357086 -0.13013499975204468 -0.0782526284456253
0.10513433814048767 -0.1146591305732727 -0.0634748712182045
-0.013244087807834148 -0.0868377834558487 0.060704074800014496
0.2641919255256653 -0.07952070981264114 0.2501811981201172
-0.013777153566479683 -0.12442828714847565 -0.1276565045118332
0.10690192878246307 -0.07944215834140778 -0.023778926581144333
-0.09825927019119263 0.12282326817512512 0.021819425746798515
-0.09674284607172012 0.07037656009197235 0.008285265415906906
-0.034164510667324066 -0.0879705548286438 -0.14481116831302643
-0.028442978858947754 -0.09779888391494751 -0.16314703226089478
0.011551352217793465 -0.12634916603565216 -0.04745842143893242
-0.06146492063999176 -0.041069068014621735 -0.028027931228280067
-0.08242115378379822 -0.06472525000572205 0.04774044454097748
-0.09422580897808075 0.06516806781291962 0.12909415364265442
0.16056983172893524 -0.05089370161294937 0.05633285641670227
-0.082904152572155 -0.06104337051510811 -0.037112995982170105
0.03681468218564987 -0.08712281286716461 -0.004843013361096382
0.005444269627332687 -0.12895812094211578 0.20230458676815033
0.0382600761950016 -0.08020444959402084 -0.04130003973841667
-0.07055015861988068 0.1022605299949646 0.05399971082806587
0.09791064262390137 -0.09153347462415695 0.10746987164020538
-0.06781303882598877 0.11975502967834473 0.08665132522583008
0.39653515815734863 0.060683079063892365 0.004640497267246246
-0.11962404102087021 0.09984705597162247 0.0035816458985209465
-0.07492586225271225 -0.10998626798391342 -0.06036852300167084
-0.08798777312040329 0.012775166891515255 -0.1381159871816635
0.045892953872680664 0.025511646643280983 0.438927561044693
0.04341322183609009 0.38272079825401306 -0.07386018335819244
0.04205126315355301 -0.10622834414243698 0.19373467564582825
-0.08030399680137634 -0.005639922805130482 0.07528513669967651
-0.019018052145838737 0.03049447014927864 -0.2349373698234558
0.05175967887043953 -0.10116402804851532 -0.17074857652187347
-0.022739335894584656 -0.08108846098184586 0.041152119636535645
-0.0026305392384529114 -0.06621183454990387 0.002553471364080906
-0.11364397406578064 0.020558804273605347 0.0023253457620739937
-0.09297667443752289 -0.0824243426322937 -0.08285894244909286
-0.06601788103580475 0.09819687902927399 0.07797707617282867
-0.11128536611795425 0.05208640918135643 -0.21693307161331177
-0.07821592688560486 0.11544613540172577 0.13498879969120026
0.03481942042708397 -0.06735576689243317 0.047585856169462204
-0.10344620794057846 0.10246829688549042 0.06703437119722366
-0.007209036499261856 -0.06907975673675537 0.06238503381609917
0.008910104632377625 -0.07792449742555618 0.004203639924526215
-0.08728169649839401 0.0687151700258255 0.19449254870414734
-0.10764546692371368 0.16079209744930267 -0.12972643971443176
0.02725335955619812 -0.06227584928274155 -0.01437963917851448
-0.11664117127656937 0.010792356915771961 0.26679080724716187
0.21075762808322906 -0.07770350575447083 0.02959752082824707
-0.05343381687998772 -0.10285351425409317 -0.19951890408992767
0.014323538169264793 -0.08238963037729263 0.06482875347137451
-0.025710998103022575 -0.07878895848989487 -0.0238853357732296
0.0800001472234726 -0.10037057846784592 0.3740237057209015
-0.11614656448364258 0.08508960157632828 0.11396579444408417
-0.055415764451026917 -0.08035039901733398 -0.3112226128578186
0.09848742187023163 -0.08602084964513779 0.009396455250680447
-0.1277248114347458 0.04383046180009842 -0.08798150718212128
-0.07282344251871109 -0.027450280264019966 0.19413602352142334
0.11136864870786667 -0.07640513777732849 0.02016891911625862
0.01865060068666935 -0.10446791350841522 -0.19663652777671814
-0.06629406660795212 0.13412511348724365 0.1907152235507965
-0.08208725601434708 0.12088671326637268 0.07496253401041031
-0.0786365270614624 -0.027902798727154732 0.04677485674619675
0.028306512162089348 0.4336363673210144 0.3634338974952698
-0.014580362476408482 -0.06749779731035233 0.31048813462257385
-0.09479478001594543 -0.045523859560489655 0.061074186116456985
0.06117339804768562 -0.09809889644384384 0.03014139086008072
-0.08612571656703949 0.010727476328611374 -0.06449654698371887
-0.09982942044734955 0.08111810684204102 0.024441925808787346
-0.06768558919429779 -0.0671067088842392 -0.0612729974091053
0.1848462074995041 -0.07710248976945877 0.28031888604164124
-0.0922246128320694 0.12998121976852417 -0.0018561528995633125
-0.0942554697394371 -0.00964699313044548 0.12312421202659607
-0.07903941720724106 0.250644326210022 0.04824836179614067
0.07787331193685532 -0.06854040175676346 -0.007508820854127407
0.09054497629404068 -0.10293617099523544 -0.031037602573633194
-0.07156901806592941 -0.06353262811899185 -0.08327214419841766
-0.08798453211784363 -0.01433783583343029 0.07758299261331558
-0.10121618211269379 0.09501934051513672 0.3072727620601654
-0.07701572775840759 0.029654785990715027 -0.020972197875380516
0.04316938668489456 -0.10194230824708939 -0.05824517458677292
0.0535038560628891 -0.08669355511665344 -0.022347010672092438
-0.07220706343650818 0.13109125196933746 -0.07583939284086227
-0.08974085748195648 -0.11375873535871506 -0.004571428522467613
-0.03649142012000084 -0.1002565249800682 -0.0918530821800232
-0.0907992571592331 0.056965962052345276 -0.09342341125011444
0.05161517485976219 -0.053092069923877716 0.17541629076004028
0.0386740043759346 -0.13330866396427155 0.235821932554245
-0.02024296671152115 -0.0884118601679802 0.048246707767248154
-0.07486678659915924 -0.09457878768444061 -0.07420478016138077
-0.10702943801879883 0.11791970580816269 0.029666665941476822
0.04661034420132637 -0.09578055143356323 0.0035142265260219574
0.02143704518675804 -0.10134410858154297 -0.1760445237159729
-0.10168880224227905 0.12383764237165451 0.055069699883461
0.11848331987857819 -0.06182318925857544 -0.006351863965392113
-0.10475333034992218 0.09900574386119843 -0.01493336446583271
-0.09610461443662643 0.1387772262096405 0.13305769860744476
-0.1064140647649765 0.032333895564079285 0.03620877116918564
-0.04349957033991814 0.13139721751213074 -0.11316664516925812
-0.0018723809625953436 -0.07210874557495117 -0.14393432438373566
-0.13194312155246735 -0.04781651496887207 0.10419204831123352
-0.07545148581266403 0.08569318056106567 0.028749460354447365
0.06349886953830719 -0.06963242590427399 -0.09894149005413055
-0.02998529002070427 -0.07806476950645447 0.054614584892988205
-0.09588293731212616 0.1420532763004303 0.16653664410114288
-0.08170149475336075 -0.08999796211719513 0.23150348663330078
0.07534851133823395 -0.06475377082824707 0.014958348125219345
0.025559399276971817 -0.0756048932671547 -0.203191339969635
-0.10201290249824524 -0.030313095077872276 0.0031211916357278824
0.10184001922607422 -0.05098683014512062 -0.33673468232154846
-0.01657475344836712 -0.08877279609441757 -0.04239208251237869
-0.06743627786636353 -0.06304315477609634 -0.05169010907411575
-0.11116624623537064 0.10009077936410904 0.36707040667533875
0.07949475198984146 -0.0969238430261612 -0.006185094825923443
-0.08248238265514374 0.25334781408309937 0.39379575848579407
0.057696275413036346 -0.0915675014257431 -0.20655086636543274
0.12085332721471786 -0.0690513625741005 -0.04532589763402939
-0.053402528166770935 -0.0676107257604599 -0.0006291093304753304
-0.07457653433084488 0.0678282082080841 0.06423676013946533
-0.11078077554702759 0.02441146783530712 -0.046516697853803635
-0.13591136038303375 -0.029407156631350517 0.4602912366390228
-0.08909682929515839 0.09724704921245575 0.10393358767032623
-0.04166822135448456 -0.05236467719078064 -0.06948678940534592
0.10414358973503113 -0.07392173260450363 0.04337066039443016
-0.0896655023097992 -0.0172723475843668 -0.003387434408068657
0.10733702778816223 -0.10298973321914673 0.03219343721866608
-0.01610923372209072 -0.09889528900384903 -0.2673904597759247
0.04143402725458145 -0.09897998720407486 0.010687521658837795
0.0036751218140125275 -0.06609386950731277 0.18016956746578217
-0.06500224769115448 0.10445994138717651 0.13597634434700012
-0.0709599107503891 0.18005038797855377 0.25308433175086975
-0.11982918530702591 0.06229414790868759 0.039748385548591614
-0.09398484230041504 0.018635500222444534 0.00974754337221384
-0.10824993252754211 0.027679113671183586 0.0656471997499466
0.034790072590112686 -0.11667735874652863 0.03183596581220627
0.13149680197238922 -0.08615174889564514 -0.043705813586711884
-0.0929870530962944 0.1242976188659668 0.3061141073703766
0.14073234796524048 -0.0827963799238205 -0.0175180621445179
0.11749807745218277 -0.08873355388641357 -0.011430594138801098
0.08165855705738068 -0.07903171330690384 -0.0020746197551488876
0.19345025718212128 -0.08596368879079819 0.19489742815494537
-0.07841140031814575 -0.08145873248577118 0.055947043001651764
0.03411894291639328 -0.09552723914384842 -0.013052243739366531
0.05504274740815163 -0.0634603202342987 -0.011475035920739174
0.12654522061347961 -0.06737847626209259 0.010892342776060104
0.014549750834703445 -0.07879505306482315 0.22180777788162231
0.04169140383601189 -0.08960650861263275 0.12826961278915405
0.2863907217979431 -0.00475742481648922 0.17144979536533356
-0.12156544625759125 0.0581350140273571 0.011305686086416245
0.0007398035377264023 -0.10108524560928345 -0.017804235219955444
-0.0672573447227478 0.12369507551193237 0.12491238117218018
-0.0767454132437706 0.07599091529846191 0.04734644293785095
-0.05285259336233139 0.0562015175819397 -0.02389436960220337
0.09285499155521393 -0.07865959405899048 -0.21285025775432587
-0.09590096026659012 0.10405629128217697 0.031241074204444885
0.08977913856506348 -0.08292143791913986 -0.119489386677742
-0.049024444073438644 -0.08561356365680695 0.07176800072193146
-0.10777144134044647 0.01168866828083992 -0.008488399907946587
0.02509731985628605 -0.006517911795526743 -0.5439045429229736
-0.039694130420684814 -0.05025740712881088 0.060330137610435486
-0.04514886438846588 0.12501205503940582 -0.3688560128211975
-0.04522545635700226 -0.074185311794281 0.10951267182826996
-0.002055257558822632 -0.09222884476184845 0.31334051489830017
-0.0752919614315033 0.08094728738069534 0.09521608054637909
0.016903767362236977 -0.07811625301837921 0.025136129930615425
-0.08916638791561127 0.051104649901390076 0.16273343563079834
0.05263320356607437 -0.08803413063287735 -0.018420370295643806
0.043289437890052795 -0.07802010327577591 0.0015511447563767433
-0.055008891969919205 0.23787899315357208 0.24730230867862701
-0.06424613296985626 -0.11559788882732391 0.13742679357528687
-0.038787856698036194 0.13439041376113892 0.0245793629437685
-0.07836205512285233 0.03267674520611763 0.0630405843257904
-0.08101530373096466 0.14358624815940857 0.06073635816574097
0.1066768690943718 -0.0688408613204956 -0.0072666313499212265
-0.11002956330776215 0.08734841644763947 0.08797955513000488
-0.08925098925828934 -0.07256153225898743 -0.13610060513019562
-0.08362216502428055 -0.006888490170240402 0.10645370930433273
0.11920247972011566 -0.08563779294490814 -0.01166868582367897
-0.08415208756923676 -0.07843711972236633 -0.10027263313531876
-0.010031422600150108 -0.06913492828607559 0.03057245723903179
-0.11930757761001587 0.055900901556015015 0.06946101784706116
0.0765002965927124 -0.052586667239665985 -0.017090309411287308
-0.07613950967788696 0.11506026983261108 0.14765968918800354
-0.06538517773151398 -0.07904666662216187 -0.1124579906463623
-0.06704872846603394 0.22391128540039062 -0.11463290452957153
0.0762193500995636 -0.11037783324718475 0.005461364984512329
-0.07377195358276367 -0.1049039214849472 0.27455201745033264
-0.12828508019447327 0.03905322775244713 -0.020919978618621826
-0.0821627750992775 0.13738253712654114 0.27897194027900696
-0.09790237993001938 -0.011382456868886948 0.4158102869987488
-0.02890188805758953 -0.10893912613391876 -0.04412359371781349
-0.13239818811416626 -0.012648671865463257 -0.015532063320279121
-0.10872603207826614 0.09173048287630081 0.18994587659835815
0.13023576140403748 -0.08957154303789139 0.23123012483119965
0.09709371626377106 -0.08938634395599365 0.032110996544361115
-0.11407144367694855 0.06487033516168594 0.42226651310920715
0.04748595505952835 -0.07335161417722702 -0.00949326902627945
0.12954871356487274 -0.0796431228518486 0.0016746576875448227
0.04672892391681671 -0.07575927674770355 0.048036474734544754
-0.12020322680473328 0.06953029334545135 -0.0030770888552069664
-0.055263813585042953 -0.07636697590351105 -0.023381099104881287
-0.06549284607172012 -0.08107883483171463 0.08291177451610565
-0.09536999464035034 -0.0678914487361908 0.27512460947036743
-0.07930190861225128 -0.04716849327087402 0.2029903382062912
-0.12930628657341003 0.09170838445425034 0.4412596821784973
-0.08060165494680405 -0.042216453701257706 0.0741325318813324
-0.12517310678958893 0.08036971092224121 -0.05379422754049301
0.03219073265790939 -0.0714622214436531 -0.027098283171653748
-0.07871285080909729 -0.03493039682507515 -0.30682411789894104
-0.008267179131507874 -0.0977138876914978 -0.1466028094291687
-0.07000979036092758 0.04963993653655052 -0.04336020350456238
0.08509144186973572 -0.09441159665584564 -0.0309666208922863
0.030607836320996284 -0.10075221210718155 -0.05292440205812454
0.0010009389370679855 -0.08616366982460022 -0.13477540016174316
-0.08649636805057526 0.013428334146738052 -0.014331081882119179
-0.07170127332210541 0.033152032643556595 0.13432824611663818
-0.1292358785867691 0.09604951739311218 -0.06122668460011482
0.07033693790435791 -0.13330726325511932 -0.015693822875618935
0.1164083480834961 -0.05409178137779236 -0.2633807063102722
0.08811011910438538 -0.05781489238142967 0.2975427508354187
0.017007090151309967 -0.09506192058324814 0.39648187160491943
-0.06762377172708511 0.019989196211099625 0.2139703333377838
-0.10061103850603104 0.10159368813037872 0.2382906824350357
-0.10379121452569962 0.0876895934343338 -0.0007477747276425362
0.034282684326171875 -0.07175377756357193 -0.11188481003046036
-0.05818206071853638 0.11866535991430283 0.31968894600868225
-0.09428846836090088 -0.003833504393696785 0.07743233442306519
-0.08694632351398468 -0.05953345447778702 -0.06123047322034836
0.12440167367458344 -0.06380939483642578 0.009234616532921791
0.10397054255008698 -0.0593595877289772 -0.0051357802003622055
-0.08095768094062805 -0.0732077807188034 0.015758968889713287
-0.015278279781341553 -0.09947091341018677 0.11534983664751053
-0.0812966376543045 0.1654057800769806 -0.2728416323661804
-0.006202990189194679 -0.07514059543609619 0.13510313630104065
0.03965461999177933 -0.12449629604816437 0.11312751471996307
-0.030054885894060135 -0.11723056435585022 0.35462886095046997
-0.0507768951356411 -0.08345531672239304 -0.09031116962432861
0.1368197798728943 -0.06512200832366943 -0.015144736506044865
-0.037274837493896484 -0.1000664010643959 0.014899061992764473
-0.03322405368089676 0.14694997668266296 -0.04579804092645645
-0.1209820881485939 0.07128933072090149 0.06896908581256866
-0.0193569827824831 -0.08292728662490845 -0.14276915788650513
-0.0329534187912941 -0.08492089807987213 0.20215342938899994
-0.0855729728937149 0.1344936639070511 0.04655670374631882
-0.020478801801800728 0.08107399195432663 -0.43785935640335083
-0.08496952801942825 -0.07772642374038696 -0.07688839733600616
-0.08344338834285736 0.026219628751277924 0.04906604439020157
0.09248354285955429 -0.10731285810470581 0.2291572093963623
-0.10552377253770828 0.003308042883872986 -0.005849345587193966
-0.06276256591081619 -0.08278670907020569 -0.04473467543721199
-0.08676605671644211 0.0344788059592247 0.0778210461139679
-0.09344024956226349 0.050704099237918854 0.2401190996170044
0.052422087639570236 -0.09521973133087158 -0.019042395055294037
0.10618072003126144 -0.07652568072080612 -0.014544307254254818
0.08405070006847382 -0.08002729713916779 -0.025047656148672104
-0.08585483580827713 0.011846606619656086 0.062056202441453934
0.12232270836830139 -0.08765572309494019 0.258083701133728
-0.02630693092942238 0.07047827541828156 0.1365821808576584
-0.0019029006361961365 -0.0737048014998436 0.019143611192703247
-0.09824500977993011 0.18515312671661377 0.13579866290092468
-0.13088427484035492 0.012520389631390572 0.00777457095682621
-0.035048771649599075 -0.08890070021152496 -0.03498563915491104
0.11637956649065018 -0.05337081104516983 -0.12212810665369034
0.1342075765132904 -0.04934418946504593 -0.11753116548061371
0.0009007416665554047 -0.08285189419984818 -0.021425586193799973
0.162296324968338 -0.07299502193927765 -0.029805302619934082
0.10039418935775757 -0.009532224386930466 0.11730005592107773
-0.08350875973701477 0.023220473900437355 -0.06215182691812515
-0.12582218647003174 -0.003239917801693082 0.1052999496459961
-0.030249377712607384 -0.10925740003585815 -0.12200507521629333
-0.10662823915481567 -0.03841094300150871 -0.14767082035541534
-0.07420356571674347 0.10161832720041275 0.01929408870637417
0.08473768830299377 -0.042111586779356 -0.030100585892796516
0.1236959770321846 -0.08641088008880615 -0.10377778857946396
-0.08420432358980179 -0.07849815487861633 -0.029419392347335815
-0.09058882296085358 -0.03187297284603119 -0.013328216038644314
-0.09213578701019287 -0.024739723652601242 0.14762112498283386
0.3281193673610687 0.009233803488314152 -0.16494248807430267
-0.08863697201013565 -0.06484509259462357 -0.0282257329672575
0.005175272934138775 -0.08908239006996155 0.1482243835926056
-0.01909765601158142 -0.10671456158161163 0.2377621829509735
-0.034458331763744354 -0.08464320003986359 0.015694547444581985
-0.12082335352897644 0.1143520325422287 -0.023405445739626884
0.10138846188783646 -0.01811038702726364 -0.13384433090686798
-0.08378969132900238 -0.009038308635354042 0.08585330843925476
0.011209087446331978 -0.06344997882843018 0.12377821654081345
-0.06996102631092072 -0.0033102426677942276 -0.24928513169288635
-0.06565169990062714 0.12699487805366516 -0.15203449130058289
0.103774793446064 -0.06474447250366211 -0.029002124443650246
-0.08040682971477509 0.18830570578575134 -0.04262661933898926
0.05478449538350105 -0.12135737389326096 -0.041945286095142365
-0.07515445351600647 0.06397449970245361 0.08938323706388474
0.12144112586975098 -0.07030709087848663 -0.03585504740476608
-0.0844392478466034 0.1281542181968689 0.020055463537573814
-0.12836124002933502 0.0026267878711223602 -0.17394915223121643
0.020390287041664124 -0.08917133510112762 0.14886128902435303
-0.11849814653396606 -0.015263114124536514 0.06340470165014267
-0.09139034897089005 0.13057944178581238 0.11385616660118103
0.04266645759344101 -0.08504730463027954 0.01124919019639492
0.030613871291279793 0.045662228018045425 0.2522715628147125
0.019478946924209595 -0.07924209535121918 0.2640247642993927
-0.09927962720394135 -0.04829055070877075 0.02756570838391781
-0.062952920794487 -0.10464570671319962 -0.07526639848947525
-0.07644946873188019 0.1545323133468628 -0.13528621196746826
-0.09304343163967133 0.03328896313905716 0.3530610501766205
0.02037139981985092 -0.0842926949262619 -0.024158550426363945
-0.10147563368082047 0.12783661484718323 0.040036678314208984
-0.10323339700698853 0.004377733916044235 0.053231846541166306
0.0645659863948822 -0.09814842790365219 -0.09996920078992844
-0.11877038329839706 0.09987778216600418 0.26524707674980164
-0.058277200907468796 0.098673015832901 0.09015971422195435
-0.1012541651725769 0.007405017502605915 -0.07874785363674164
