0.14882652461528778 -0.026843179017305374 0.09957669675350189
-0.07556461542844772 0.1318778395652771 0.41666722297668457
-0.030043765902519226 -0.10196957737207413 -0.26645520329475403
0.02992856875061989 -0.12271920591592789 0.31541815400123596
0.040934622287750244 -0.07314661145210266 0.1681593954563141
-0.07333814352750778 0.11687144637107849 0.037698760628700256
-0.0926414430141449 0.09915294498205185 -0.013562571257352829
0.015156233683228493 -0.058577150106430054 0.23197072744369507
-0.04293040931224823 -0.0501643568277359 -0.07597605884075165
0.08852215111255646 -0.08843643963336945 -0.41271868348121643
-0.1270851194858551 0.10128507763147354 0.0024888738989830017
-0.032927095890045166 -0.1154465526342392 0.3732217848300934
-0.07288932055234909 -0.005318557843565941 -0.033695805817842484
0.10137574374675751 -0.0791153609752655 -0.01952376216650009
-0.07894708216190338 0.05455029383301735 0.043143391609191895
-0.08175078779459 0.0513000525534153 -0.12227988243103027
-0.07767113298177719 -0.06973502784967422 0.11855315417051315
0.06336207687854767 0.47402843832969666 0.09565042704343796
0.01846306025981903 -0.09147123247385025 -0.4239407181739807
0.11520726978778839 -0.06125597655773163 -0.10120075196027756
-0.09447882324457169 -0.05550229921936989 -0.1407228410243988
-0.06826847791671753 0.00801190733909607 -0.3356216847896576
-0.06660501658916473 -0.029250921681523323 -0.2244543582201004
0.10256414115428925 -0.10916529595851898 -0.10167406499385834
-0.11464743316173553 0.08598387986421585 0.4750696122646332
0.07388971745967865 -0.0852886363863945 0.15018728375434875
-0.06516145914793015 0.18476837873458862 -0.008275188505649567
0.0033915070816874504 -0.07955574244260788 -4.1960738599300385e-05
-0.12928448617458344 0.012050426565110683 0.096366748213768
-0.10220123827457428 0.0623488575220108 -0.13687412440776825
-0.10056861490011215 0.1666719764471054 0.20869119465351105
-0.053840868175029755 -0.06882865726947784 0.1398298293352127
-0.1271902620792389 0.030109263956546783 -0.11075698584318161
-0.08570294827222824 -0.01041959784924984 0.07578963786363602
-0.0901174321770668 -0.09398346394300461 -0.0019718874245882034
0.030833762139081955 -0.06069395691156387 -0.07830771058797836
-0.09762074053287506 0.10680705308914185 -0.005194332450628281
0.1218767911195755 -0.040688708424568176 0.004334662109613419
0.15114808082580566 -0.07776238769292831 0.08632052689790726
-0.09314753115177155 0.0904669240117073 0.13966004550457
0.1463966965675354 -0.07045987248420715 0.282631516456604
0.08894304186105728 -0.06597927957773209 -0.24561172723770142
-0.1020214706659317 0.09847822040319443 -0.08045396208763123
-0.0976058691740036 0.07611388713121414 0.4214558005332947
-0.08327320963144302 0.007125444710254669 -0.2075098305940628
0.08784407377243042 -0.09059379249811172 0.0157945454120636
0.06474824249744415 -0.1089186742901802 -0.059671200811862946
-0.07312757521867752 0.09173520654439926 0.0734853595495224
-0.07938125729560852 0.07760927826166153 0.09068433940410614
0.016554106026887894 -0.10990441590547562 -0.28596654534339905
-0.08867117762565613 0.023448552936315536 0.005066754296422005
0.0160529688000679 0.039824627339839935 0.38296419382095337
-0.06535743921995163 0.10924209654331207 0.02842831425368786
-0.10520823299884796 0.05394253879785538 0.025573451071977615
0.10745593905448914 -0.054864779114723206 -0.002068154513835907
-0.139252170920372 0.12103606015443802 0.45290887355804443
0.08731940388679504 -0.09978607296943665 0.42002296447753906
-0.09357715398073196 0.22231362760066986 -0.09446585178375244
0.30298539996147156 0.01608586311340332 -0.1794448345899582
0.00025622639805078506 0.04640200734138489 -0.4873105585575104
0.16737955808639526 -0.006924990564584732 -0.02988019958138466
-0.029071079567074776 -0.09555535018444061 -0.038724541664123535
6.905850023031235e-05 -0.10586433112621307 -0.15041299164295197
0.014967679977416992 -0.10226170718669891 0.4195328652858734
0.015106020495295525 -0.1190379336476326 -0.18789930641651154
-0.10168088972568512 0.16501520574092865 0.07854649424552917
0.15040497481822968 -0.060691192746162415 0.0972965806722641
-0.11154274642467499 0.06658956408500671 -4.0114857256412506e-05
0.10844463855028152 -0.08229496330022812 0.2683783769607544
-0.07034893333911896 0.1324230432510376 0.06877229362726212
0.20847293734550476 -0.05457231402397156 -0.21952268481254578
-0.07621179521083832 -0.046744249761104584 0.09380163252353668
0.0018922500312328339 -0.09344878792762756 -0.037049055099487305
0.12666742503643036 -0.07190907001495361 -0.04033233970403671
-0.10097275674343109 -0.10212026536464691 0.4169197678565979
-0.07673731446266174 -0.09806330502033234 0.2853304147720337
-0.06592237204313278 -0.031378306448459625 -0.11229027807712555
0.10144038498401642 -0.05384080111980438 -0.036096975207328796
-0.06596306711435318 -0.05838622525334358 -0.06554706394672394
-0.10067547857761383 -0.02191486395895481 0.06636589765548706
-0.06154309958219528 0.015486915595829487 -0.39699265360832214
0.06184438616037369 -0.05733101814985275 0.04825317859649658
0.13063308596611023 -0.08319398015737534 0.021762818098068237
-0.1287173479795456 -0.023464251309633255 0.18531039357185364
-0.05129721015691757 0.157753124833107 -0.15931828320026398
-0.030941516160964966 -0.0949787050485611 0.0380404032766819
-0.012437153607606888 -0.08837984502315521 -0.08784700930118561
-0.10819987952709198 -0.026330703869462013 0.10907875746488571
0.08053065836429596 -0.1047477275133133 -0.08711583912372589
0.06042809784412384 -0.10058601945638657 -0.11979369819164276
-0.08698931336402893 0.009611295536160469 -0.12956225872039795
0.10483856499195099 -0.05467953532934189 0.015436189249157906
-0.012733075767755508 -0.07200397551059723 0.021156076341867447
0.1040293425321579 -0.0794360339641571 0.10400793701410294
-0.07175412774085999 0.08015705645084381 0.11628108471632004
-0.05289280787110329 -0.07035458832979202 -0.24465666711330414
-0.10190611332654953 -0.060127947479486465 -0.15856696665287018
-0.09825517237186432 0.04010047763586044 -0.0209647249430418
-0.04856398329138756 -0.10530178248882294 0.19517679512500763
-0.09000828117132187 -0.04285001382231712 0.06726206094026566
-0.08039805293083191 0.15080156922340393 -0.043498389422893524
-0.09204890578985214 0.055287498980760574 0.204478457570076
0.2745528221130371 0.013569323346018791 0.22774185240268707
-0.036946944892406464 -0.08724779635667801 -0.12298131734132767
0.11242665350437164 -0.07369823753833771 0.21677757799625397
0.19544623792171478 -0.020788975059986115 -0.10906876623630524
0.06500227749347687 -0.08827337622642517 -0.029948212206363678
-0.043852392584085464 0.17972706258296967 0.03568869084119797
-0.07956291735172272 0.14262455701828003 0.06602294743061066
0.10679425299167633 -0.08497452735900879 0.013586173765361309
-0.1041916087269783 0.0899171233177185 0.10406257212162018
-0.027660440653562546 -0.09129954874515533 0.008255906403064728
-0.02872833050787449 -0.07924000918865204 -0.14265598356723785
-0.0735199972987175 -0.03941836580634117 -0.010351572185754776
0.13043592870235443 -0.10339885205030441 0.2696909010410309
0.04851539805531502 -0.09751331061124802 -0.10265481472015381
-0.1127830520272255 -0.054300107061862946 -0.11756818741559982
0.10364210605621338 -0.0789434090256691 -0.030340196564793587
-0.06719032675027847 -0.06716138869524002 0.023607809096574783
-0.09541699290275574 -0.09055175632238388 0.350034236907959
0.11516795307397842 -0.06908440589904785 0.01376296766102314
0.11250674724578857 -0.09669820964336395 0.07154403626918793
-0.05859841778874397 0.12948787212371826 -0.22906839847564697
-0.06010686606168747 0.16290709376335144 0.34670841693878174
0.09548092633485794 -0.07261445373296738 -0.029421955347061157
-0.009237319231033325 -0.13268432021141052 0.2245187908411026
-0.10587217658758163 0.15979085862636566 -0.0911133661866188
-0.06754115968942642 -0.021607166156172752 0.11277246475219727
0.1138296127319336 -0.08501560986042023 0.14565634727478027
-0.13218680024147034 0.026762664318084717 0.012481771409511566
-0.07265381515026093 0.14650121331214905 -0.09877610206604004
-0.08255232125520706 0.035545624792575836 0.009428774006664753
-0.09332823753356934 -0.04545281082391739 -0.06516200304031372
-0.08085068315267563 0.11730039864778519 0.12626540660858154
-0.0821659043431282 0.15240773558616638 0.09506605565547943
-0.1167057678103447 0.023046815767884254 -0.04892881587147713
0.06449764966964722 -0.08079010248184204 -0.03465455025434494
-0.0765434205532074 0.12098616361618042 0.012464836239814758
-0.06482166051864624 0.1423116773366928 0.06735286116600037
0.0540129654109478 -0.0957760438323021 0.32120072841644287
-0.1440141499042511 0.10462816804647446 0.35935044288635254
-0.013581700623035431 -0.06208915263414383 0.03731543943285942
-0.05669981241226196 -0.008649928495287895 0.08694756031036377
0.11424541473388672 -0.04562003165483475 0.03331385552883148
0.05732947587966919 -0.1322256326675415 -0.006583744660019875
0.040166161954402924 -0.056331656873226166 0.04954570531845093
-0.008472240529954433 -0.08033406734466553 0.0043238988146185875
-0.10640287399291992 0.012705991044640541 0.09766882658004761
-0.03772582486271858 0.139809712767601 -0.10152742266654968
0.10233090817928314 -0.02272069826722145 0.09389426559209824
-0.020763803273439407 -0.07179099321365356 -0.06406395137310028
-0.029556626453995705 -0.07292217761278152 -0.1610870063304901
-0.05361494421958923 0.15419870615005493 -0.0716615542769432
-0.09121526777744293 0.10045455396175385 0.041069380939006805
0.056667640805244446 -0.07450290769338608 0.06033160164952278
-0.023807596415281296 -0.0626668632030487 -0.041267938911914825
-0.10882628709077835 -0.08500020951032639 -0.018500568345189095
-0.061259061098098755 0.0646686777472496 -0.32597216963768005
-0.05980755016207695 0.11438222974538803 0.0874357521533966
-0.06894618272781372 -0.0781448483467102 -0.11714063584804535
0.11255107820034027 -0.05199911445379257 0.05099119618535042
-0.07226534187793732 -0.047921862453222275 -0.11016015708446503
0.08810801804065704 -0.09100783616304398 0.10507608950138092
0.09588299691677094 -0.05406259000301361 -0.013039996847510338
0.16325311362743378 -0.05049426853656769 -0.0034703966230154037
-0.006671552080661058 -0.07687056809663773 -0.02254440449178219
-0.08621303737163544 0.08878162503242493 0.05954429879784584
0.10486911237239838 -0.07048171758651733 -0.03015071153640747
0.02373179793357849 -0.07458063960075378 -0.11417565494775772
-0.11883032321929932 0.024889841675758362 0.13364571332931519
-0.10315585136413574 0.0512666217982769 -0.017435148358345032
0.0024052103981375694 0.3361131548881531 0.1373741626739502
-0.07342495024204254 -0.06337692588567734 -0.022374261170625687
0.13426963984966278 -0.06346801668405533 -0.0002671387046575546
0.2847329378128052 -0.11240826547145844 0.3186821937561035
-0.1174255758523941 -0.019718177616596222 0.2786138355731964
-0.012202938087284565 -0.07673107832670212 -0.018023382872343063
-0.10487748682498932 -0.022157792001962662 0.08670986443758011
-0.07960988581180573 0.12117186188697815 0.09853380173444748
-0.06194388493895531 -0.007221299223601818 0.09304191917181015
0.11666713654994965 -0.06370662152767181 -0.1548963338136673
0.0950649231672287 -0.034953828901052475 0.40216320753097534
0.1543576568365097 -0.08712561428546906 -0.13515879213809967
-0.052166685461997986 0.2809966802597046 0.30355948209762573
-0.07199068367481232 -0.019761890172958374 -0.009660519659519196
0.12437813729047775 -0.018330613151192665 -0.11863536387681961
-0.11416119337081909 0.15049205720424652 0.23173724114894867
0.10340413451194763 -0.07751742005348206 0.0537898950278759
-0.08445394784212112 -0.08838364481925964 -0.08439997583627701
-0.1086907684803009 -0.025219392031431198 0.1147909089922905
-0.07759421318769455 0.01884225383400917 -0.07638605684041977
-0.08913013339042664 0.1322772055864334 -0.031420961022377014
-0.08310075104236603 -0.06846225261688232 0.059549976140260696
-0.03597015514969826 -0.11333068460226059 0.330437570810318
-0.11336611956357956 0.08411622047424316 -0.1702556312084198
0.004345489665865898 -0.10494931787252426 0.03292270749807358
0.026382556185126305 -0.07130314409732819 0.08277460187673569
-0.103030726313591 0.09952004253864288 -0.2627633213996887
-0.097237229347229 -0.086146779358387 0.0728285014629364
-0.09529144316911697 0.14395910501480103 0.17871984839439392
0.06436975300312042 -0.07776809483766556 0.12880796194076538
-0.049659356474876404 -0.06341367959976196 -0.10103128105401993
-0.08627969026565552 -0.03915160149335861 0.07247931510210037
0.07116738706827164 -0.07459487020969391 0.04914657771587372
-0.0795314759016037 0.0005507059395313263 0.12880758941173553
-0.04252004623413086 0.13806991279125214 0.0822649896144867
-0.0232120081782341 -0.05441335216164589 -0.024970896542072296
-0.10529105365276337 0.11674856394529343 0.18965178728103638
-0.0748094767332077 0.1419864445924759 -0.30593326687812805
-0.07012243568897247 -0.0947386771440506 0.048809535801410675
-0.09985940158367157 -0.05289033055305481 -0.017837826162576675
-0.1069335788488388 0.030568527057766914 0.06992451846599579
-0.11829670518636703 -0.008009789511561394 -0.06709583103656769
0.06839460134506226 -0.12255451083183289 -0.2455567717552185
0.15349270403385162 -0.038560651242733 0.031126802787184715
0.15357227623462677 -0.07462964206933975 -0.029202207922935486
0.026811182498931885 -0.1084560677409172 -0.041714370250701904
0.18856355547904968 -0.06386807560920715 0.07055632770061493
-0.11470998078584671 0.13920214772224426 0.13353639841079712
-0.061775609850883484 0.1317320466041565 0.07653693854808807
-0.09097112715244293 0.04664447158575058 0.09882289916276932
0.020746687427163124 -0.09773218631744385 -0.05812609940767288
-0.07017379999160767 0.06961309164762497 0.23423722386360168
-0.07221968472003937 0.139341801404953 0.2665861248970032
0.11675087362527847 -0.04526933282613754 -0.0786927118897438
-0.09720319509506226 -0.07608991861343384 -0.023244665935635567
-0.07106780260801315 0.0821605995297432 -0.012803273275494576
0.04257304221391678 -0.10084186494350433 0.20470714569091797
-0.1397794783115387 0.0016868412494659424 -0.025140028446912766
0.01446240022778511 -0.11125388741493225 0.16738645732402802
0.11628693342208862 -0.04319354146718979 -0.08143237233161926
-0.13338416814804077 0.08209562301635742 0.06625010818243027
-0.08887605369091034 0.05149025097489357 0.05555317550897598
-0.0645333006978035 -0.039978183805942535 -0.4340711236000061
-0.041265685111284256 0.1893773227930069 0.10859526693820953
-0.007448493968695402 -0.10485684126615524 0.015398472547531128
-0.09392362833023071 0.09452728182077408 0.04344247281551361
-0.08676095306873322 0.1349591761827469 -0.037763822823762894
-0.11005126684904099 0.04961166903376579 0.07090099900960922
0.17240861058235168 -0.06884896010160446 0.27794337272644043
-0.05628786236047745 0.1367996484041214 0.21272911131381989
0.10458098351955414 -0.10929366201162338 0.2808181643486023
0.1455911248922348 -0.07971078157424927 -0.07560985535383224
-0.1019057035446167 0.06059413030743599 -0.16991615295410156
-0.010230776853859425 -0.09970778971910477 0.28519073128700256
-0.01847667060792446 -0.06725264340639114 0.020388035103678703
-0.05737944692373276 0.14356160163879395 -0.017305918037891388
0.09594133496284485 -0.10427109897136688 0.20655620098114014
-0.06846222281455994 0.07624537497758865 0.14570245146751404
-0.07001103460788727 -0.0566495805978775 0.0992845892906189
-0.09495647996664047 -0.040509823709726334 -0.013656320050358772
-0.0928303524851799 0.03827281296253204 0.007811899296939373
-0.1163150742650032 0.07422022521495819 0.30980804562568665
0.06572134792804718 -0.08905425667762756 0.10472166538238525
-0.11090929806232452 0.08792261779308319 -0.11502353847026825
-0.11425505578517914 0.06072278320789337 -0.3217924237251282
-0.09512609243392944 -0.07065464556217194 0.061911944299936295
-0.012749290093779564 -0.10568699240684509 0.02666764333844185
0.05403492599725723 -0.07955282926559448 0.018213948234915733
-0.11738156527280807 0.06393545866012573 0.11116480827331543
-0.007626555860042572 -0.09073422104120255 0.06721040606498718
-0.10217349976301193 0.01204570010304451 -0.172073632478714
-0.09547469019889832 0.02150662988424301 0.007397148758172989
-0.10017816722393036 -0.06505132466554642 -0.023725414648652077
0.1832938939332962 -0.09926769137382507 0.4382632374763489
-0.10189560800790787 -0.09320857375860214 0.3648023307323456
0.14311116933822632 -0.10539881885051727 0.4131447374820709
0.12161880731582642 -0.0752004012465477 -0.285969614982605
-0.01467553898692131 -0.10438016057014465 0.06108236312866211
-0.09051701426506042 -0.0352386049926281 -0.1278497874736786
-0.08177825063467026 -0.03953201696276665 0.02677667886018753
0.14289496839046478 -0.05024726688861847 -0.013933871872723103
-0.09404363483190536 0.030440717935562134 0.055372871458530426
0.09570415318012238 -0.04098513722419739 -0.2522279918193817
0.01921342872083187 -0.09382186084985733 0.05769646167755127
-0.09758158028125763 0.13360053300857544 -0.012817125767469406
0.12973304092884064 -0.08794991672039032 0.0624956451356411
0.014840584248304367 -0.05093210190534592 0.06416739523410797
0.09971392899751663 -0.0700121596455574 -0.002237599343061447
0.13357266783714294 -0.08904065936803818 0.11711269617080688
-0.08645210415124893 -0.09323463588953018 -0.08216757327318192
-0.056540779769420624 0.11496303230524063 -0.12440932542085648
-0.030562305822968483 -0.10521693527698517 0.05170517787337303
0.034176673740148544 -0.06851762533187866 -0.004457356408238411
0.0844997763633728 -0.08525405824184418 0.09097622334957123
0.09234005212783813 -0.09317295253276825 -0.21221062541007996
-0.10077963769435883 0.04476778954267502 -0.22280538082122803
-0.04131273925304413 -0.07154054194688797 -0.07953301817178726
0.09676756709814072 -0.07298587262630463 -0.033499471843242645
-0.10124855488538742 0.010169637389481068 -0.00028182193636894226
-0.08553528785705566 0.14179952442646027 -0.03171141445636749
0.027026712894439697 -0.10602594166994095 0.5080438852310181
-0.049764394760131836 0.19365985691547394 0.2358895242214203
0.05959576368331909 -0.08373231440782547 0.031080223619937897
-0.06349623948335648 0.09101927280426025 -0.40294986963272095
0.09763224422931671 -0.06238502264022827 -0.028613518923521042
0.09348417818546295 -0.0602886900305748 0.001249121269211173
-0.08777564018964767 -0.061085332185029984 -0.05419309809803963
0.14845667779445648 -0.06546677649021149 0.03740303963422775
0.06358200311660767 -0.07401327788829803 0.13177156448364258
0.07476745545864105 -0.07549062371253967 0.03364509344100952
-0.06925098598003387 0.015112355351448059 -0.015573615208268166
0.022280123084783554 -0.08257085829973221 0.15449120104312897
0.01625516265630722 -0.11895556002855301 -0.1231260597705841
-0.07961822301149368 -0.09005175530910492 0.4683973789215088
0.03152845799922943 -0.07997627556324005 0.027655959129333496
0.14382988214492798 -0.06975285708904266 0.03786042705178261
0.0795774906873703 -0.10144767165184021 -0.0369141511619091
0.10831647366285324 -0.06110087037086487 0.1185116395354271
-0.11955910921096802 0.05807829648256302 0.2594379484653473
-0.07569050788879395 0.1610437035560608 -0.25941234827041626
0.1286192685365677 -0.07225353270769119 0.01878209039568901
-0.05723433196544647 -0.060581058263778687 -0.13471433520317078
-0.11598353832960129 0.03051317110657692 0.10763994604349136
0.08375178277492523 -0.0686240941286087 0.032780636101961136
0.05310354754328728 -0.08871139585971832 -0.14999118447303772
0.062332186847925186 -0.0899886041879654 0.015578541904687881
-0.06932342052459717 0.14439216256141663 -0.16856765747070312
-6.876420229673386e-05 -0.10565804690122604 -0.1034814715385437
0.09518587589263916 -0.07804237306118011 -0.03517311438918114
-0.0708705261349678 0.1255071759223938 -0.03984997048974037
-0.02464780956506729 -0.07779207825660706 0.040791042149066925
-0.12296795099973679 0.07617013901472092 0.23995721340179443
0.15389524400234222 -0.05537806451320648 0.1220017671585083
-0.10670135170221329 0.09782950580120087 0.20589591562747955
0.25754600763320923 0.0006706174463033676 0.4080817699432373
0.13115330040454865 -0.08880830556154251 -0.15531297028064728
0.06823498010635376 -0.10454529523849487 -0.05512870103120804
-0.07367472350597382 -0.04471159726381302 0.21543648838996887
0.058317843824625015 -0.07870590686798096 -0.03418988734483719
-0.09108138829469681 0.02518727257847786 0.2204969823360443
-0.0612829215824604 -0.11254584789276123 -0.06355836987495422
0.2805106043815613 -0.047355495393276215 0.04922783747315407
-0.04149061441421509 -0.058358095586299896 0.02958741784095764
0.18153944611549377 -0.06463588029146194 -0.3097379207611084
-0.11819693446159363 0.123128741979599 -0.10805350542068481
-0.0885152816772461 0.07251675426959991 0.14904794096946716
-0.053900666534900665 -0.037772879004478455 0.1334960162639618
-0.08479544520378113 -0.03527390956878662 -0.26216164231300354
0.047902874648571014 -0.0377751961350441 -0.5053624510765076
-0.0979422926902771 -0.03563851863145828 0.02023235522210598
-0.11021340638399124 -0.05347486957907677 0.27496814727783203
-0.11458281427621841 0.07364926487207413 0.1826300173997879
-0.10133600980043411 0.04736074060201645 0.165065735578537
0.06926079094409943 -0.08109312504529953 -0.02621282823383808
-0.09875670075416565 0.03493492305278778 0.00898501742631197
-0.06683622300624847 -0.06303978711366653 0.14029227197170258
-0.04369467869400978 -0.07920393347740173 0.11210384964942932
-0.11192605644464493 0.11891312897205353 -0.023454895243048668
-0.08390391618013382 -0.08596740663051605 -0.05231846868991852
0.006610961630940437 -0.0662284791469574 0.03643818572163582
0.08484788984060287 -0.09074519574642181 -0.019333256408572197
0.09642092883586884 -0.10597118735313416 0.28267717361450195
-0.07171738892793655 -0.09858465194702148 -0.16304251551628113
0.10322755575180054 -0.09654846042394638 -0.16470925509929657
0.10524740070104599 -0.0815492793917656 0.07239128649234772
0.0724911093711853 -0.09480354189872742 0.07710069417953491
-0.04059138149023056 0.12820225954055786 0.010592256672680378
-0.07531790435314178 -0.029123440384864807 -0.006449086591601372
-0.07363943010568619 0.09441810101270676 0.0028550615534186363
-0.1166175827383995 0.06299293786287308 -0.21095934510231018
-0.07892603427171707 -0.06820565462112427 0.17735348641872406
0.035614013671875 -0.10203808546066284 0.11322595179080963
-0.09470753371715546 -0.07064243406057358 -0.06956620514392853
0.0515904538333416 -0.087591253221035 0.060344189405441284
-0.08817398548126221 -0.069219209253788 0.07077474147081375
0.15709224343299866 -0.06904102861881256 0.2125275880098343
-0.07414164394140244 0.0325552336871624 -0.05973447859287262
0.055957842618227005 -0.10386189818382263 -0.1530849188566208
-0.03779139369726181 -0.06806726008653641 0.0982554703950882
-0.08736814558506012 0.10627841204404831 -0.19379979372024536
-0.06580040603876114 -0.06467799842357635 -0.05256844311952591
0.06114122271537781 -0.06802011281251907 -0.008944157510995865
-0.04605351388454437 -0.07504530251026154 -0.20568597316741943
-0.08657984435558319 0.01715938374400139 -0.024838630110025406
0.22807922959327698 -0.06079433858394623 0.0005890466272830963
-0.07561181485652924 0.09143820405006409 -0.22094731032848358
-0.1333419382572174 -0.02796328440308571 0.4811598062515259
0.0609285905957222 -0.08534272015094757 0.09483349323272705
-0.09398612380027771 -0.09222894161939621 -0.046493932604789734
-0.11614525318145752 0.07258014380931854 -0.01687425561249256
0.09651638567447662 -0.07642358541488647 -0.03192531317472458
-0.08896046131849289 0.12612409889698029 0.042813386768102646
0.06001153960824013 -0.08792927861213684 -0.20074301958084106
-0.037009209394454956 -0.06596548855304718 -0.12556706368923187
-0.06342355161905289 0.10437225550413132 -0.26736268401145935
-0.08915647864341736 0.16322311758995056 0.01801501214504242
0.1306345909833908 -0.0639830082654953 -0.35529863834381104
-0.08579963445663452 -0.08863204717636108 -0.09987705200910568
-0.11973549425601959 0.11109975725412369 0.0931733250617981
0.008612291887402534 -0.09362509846687317 0.1399599313735962
-0.1030619889497757 0.06200530380010605 0.06643413752317429
-0.08074822276830673 0.11977912485599518 -0.0663878470659256
-0.06302423775196075 -0.09455892443656921 -0.06680867820978165
-0.010061009787023067 -0.06268298625946045 0.022277530282735825
0.0163736455142498 -0.0902060717344284 -0.037642814218997955
-0.020635582506656647 -0.0854603722691536 -0.073116734623909
-0.07403692603111267 0.10949995368719101 0.2841196656227112
0.10472463071346283 -0.08148428797721863 -0.1267939805984497
0.02787875384092331 -0.07728739082813263 0.09763951599597931
-0.09367658942937851 -0.02223336137831211 -0.01893272064626217
-0.11522695422172546 -0.050937358289957047 0.038845647126436234
-0.018459798768162727 -0.07850686460733414 0.09751326590776443
0.14523419737815857 -0.08943875879049301 0.0010951077565550804
-0.12737175822257996 0.03211518004536629 0.13769131898880005
0.07667818665504456 -0.10020042955875397 -0.04285147413611412
-0.11862242221832275 -0.013641799800097942 -0.18359269201755524
0.04741792380809784 -0.1025034561753273 -0.10794404149055481
-0.10349723696708679 0.053597912192344666 0.14276625216007233
-0.02870567888021469 -0.08187165856361389 -0.05802443251013756
0.12088477611541748 -0.15035079419612885 0.47014766931533813
0.11454491317272186 -0.06625339388847351 -0.19426478445529938
0.45794594287872314 0.0836932361125946 0.37166914343833923
-0.03850984573364258 -0.06806524097919464 0.05023602023720741
0.046085670590400696 0.011097319424152374 -0.6173118352890015
-0.09370081126689911 -0.08284232765436172 0.04340861365199089
-0.08954824507236481 -0.07670460641384125 0.2457467019557953
0.09525209665298462 -0.06146010383963585 -0.0261865071952343
-0.006588864140212536 -0.08394346386194229 0.009561549872159958
-0.09107756614685059 -0.04423653334379196 0.062059350311756134
-0.0981006994843483 0.11199602484703064 0.0611366406083107
0.11906011402606964 -0.06981217116117477 -0.14522069692611694
0.10100391507148743 -0.06814904510974884 -0.021083511412143707
0.01400810293853283 -0.07384283095598221 0.05255154147744179
-0.12316364794969559 0.013540973886847496 -0.12501946091651917
-0.09221311658620834 0.03026261180639267 0.11271651089191437
-0.06043887883424759 -0.09018264710903168 0.08385144919157028
-0.08800307661294937 -0.09591537714004517 -0.03283482789993286
-0.10823358595371246 -0.013233593665063381 -0.008011885918676853
0.04262756556272507 -0.05309842526912689 0.1653982698917389
-0.11778406798839569 -0.026912447065114975 0.06941024214029312
-0.03313811868429184 -0.07074517011642456 -0.17624497413635254
0.052167102694511414 -0.07180197536945343 0.02805006504058838
0.09559260308742523 -0.08413325995206833 -0.029927656054496765
-0.12295272201299667 0.055902209132909775 0.17675936222076416
-0.08692869544029236 0.15090106427669525 -0.010485135018825531
-0.05517911538481712 0.15077413618564606 0.011280824430286884
-0.09900470077991486 -0.021740399301052094 -0.019567936658859253
0.09072856605052948 -0.06550546735525131 -0.030106185004115105
-0.09505203366279602 0.049877725541591644 -0.03271648287773132
-0.10332600027322769 0.08924794942140579 0.2131383717060089
-0.013528246432542801 -0.09697914868593216 -0.03904689848423004
0.09423795342445374 -0.08466147631406784 -0.019550872966647148
-0.06443849205970764 -0.06469295173883438 -0.032197512686252594
-0.02900061570107937 -0.07240645587444305 0.286929190158844
-0.07268522679805756 0.10571281611919403 0.04542269930243492
-0.08777707815170288 0.05170954018831253 0.03248072415590286
0.05285521224141121 -0.07971057295799255 -0.015998296439647675
-0.12022940814495087 0.047508396208286285 0.4556492567062378
0.059529416263103485 -0.09199173003435135 -0.013883862644433975
-0.1095501035451889 0.04780823737382889 -0.15726414322853088
-0.1237248107790947 0.023733310401439667 -0.15285983681678772
-0.08530831336975098 0.15612941980361938 -0.012448547407984734
0.16178742051124573 -0.073963962495327 0.0037217028439044952
-0.08324001729488373 -0.06182609498500824 -0.0395793579518795
0.007142988964915276 -0.10565326362848282 0.3603154122829437
-0.10467134416103363 0.03843903914093971 0.01279824785888195
-0.09426750987768173 -0.08918346464633942 0.046087607741355896
0.12620332837104797 -0.03140418604016304 0.20222358405590057
0.03462696075439453 -0.08403441309928894 -0.01795988343656063
-0.126230388879776 0.0025023818016052246 0.10236101597547531
-0.09189098328351974 -0.041409824043512344 0.08676816523075104
0.03662491589784622 -0.07018435001373291 -0.12238308787345886
-0.03581174090504646 -0.07172781229019165 0.21954937279224396
0.2028280645608902 0.01519025769084692 0.12140700221061707
0.12124510854482651 -0.030405079945921898 0.0538775809109211
0.038130443543195724 -0.10212908685207367 0.024013502523303032
0.09241576492786407 -0.04656413197517395 -0.11101456731557846
-0.05149519070982933 -0.08917061984539032 0.1810338944196701
-0.08912535756826401 0.08297954499721527 -0.19170139729976654
0.032250355929136276 -0.03776891529560089 0.10667367279529572
0.2802075147628784 -0.11038839817047119 0.46407416462898254
-0.11189444363117218 -0.08559861779212952 0.1873762458562851
0.14412614703178406 -0.015317565761506557 -0.03800319880247116
0.018258873373270035 0.06429095566272736 0.154327392578125
0.006853638216853142 -0.11113443970680237 -0.0846361368894577
0.054552752524614334 -0.08239429444074631 0.006689447443932295
0.09566441178321838 -0.06170402839779854 -4.040449857711792e-05
-0.004678955301642418 -0.06302712112665176 -0.2246437668800354
0.06753647327423096 -0.07400429248809814 0.012195460498332977
0.03839584067463875 -0.0713110938668251 -0.1185021847486496
0.010963245294988155 -0.08072491735219955 0.026014525443315506
-0.06797641515731812 -0.03369125723838806 -0.017085053026676178
0.4498780071735382 0.06904129683971405 -0.011838294565677643
0.0564534068107605 -0.09287400543689728 -0.06247039884328842
0.0562286451458931 -0.10734985768795013 -0.17351675033569336
-0.039679042994976044 -0.07895791530609131 -0.014308943413197994
-0.06813306361436844 0.1573808789253235 0.08831104636192322
-0.07863262295722961 0.059792615473270416 0.16896870732307434
0.028063645586371422 -0.09619801491498947 0.24788370728492737
-0.08928270637989044 -0.08572731912136078 -0.012934517115354538
-0.10051319748163223 0.036200299859046936 0.1582401692867279
-0.11476186662912369 0.0639742985367775 0.018658380955457687
-0.0571633018553257 -0.08342388272285461 0.13966526091098785
0.1343388557434082 -0.021239250898361206 0.44820234179496765
-0.1122288703918457 0.014384796842932701 0.23732829093933105
-0.031124450266361237 -0.0824139192700386 -0.05875397101044655
-0.07453517615795135 -0.06059440225362778 0.04085833579301834
-0.07574830949306488 0.10998396575450897 0.1353565901517868
-0.06701216846704483 0.18549031019210815 0.31905144453048706
0.10166334360837936 -0.09135910868644714 -0.018053341656923294
-0.007849931716918945 -0.06386307626962662 -0.16303712129592896
-0.1041266992688179 0.17234842479228973 0.4523153007030487
0.1337474286556244 -0.055165499448776245 -0.15738514065742493
-0.11171253025531769 0.09231880307197571 0.17968128621578217
-0.10233978927135468 0.045956335961818695 -0.03948473557829857
0.030103519558906555 0.35272806882858276 -0.061668891459703445
0.04603634029626846 -0.08116242289543152 0.2578175365924835
-0.01751883141696453 -0.0698249340057373 0.01664900593459606
-0.053645431995391846 0.18448683619499207 0.16380217671394348
-0.004523571114987135 -0.06199762225151062 -0.08626449108123779
-0.10874542593955994 -0.09388145804405212 0.12697896361351013
-0.10555276274681091 0.0530867800116539 0.0038700266741216183
-0.09799758344888687 -0.007910112850368023 0.1003328487277031
-0.12613895535469055 -0.03525393083691597 0.3322225511074066
0.0387098453938961 -0.08142087608575821 -0.0056989602744579315
-0.1410057246685028 -0.029201623052358627 0.08630357682704926
-0.021308809518814087 -0.07706236094236374 0.06361322104930878
0.09388729929924011 -0.06090431660413742 -0.07479548454284668
0.11914414912462234 -0.056603580713272095 0.1359034776687622
-0.11485413461923599 0.09426143765449524 0.03577810898423195
-0.09459362179040909 -0.04916972666978836 -0.06562560051679611
0.0765652284026146 -0.1295301765203476 0.02989175170660019
0.12623253464698792 -0.05682528764009476 -0.019089167937636375
0.00038167089223861694 -0.07811040431261063 0.10534186661243439
0.1488896608352661 -0.012125857174396515 -0.06804141402244568
-0.08559919148683548 0.06724194437265396 -0.2005915343761444
-0.08671408146619797 0.08947641402482986 0.03922524303197861
-0.09642042964696884 -0.08242234587669373 -0.08278904855251312
-0.007816806435585022 -0.059674330055713654 0.06623302400112152
0.033552177250385284 0.4606499671936035 0.40703439712524414
0.04503379389643669 -0.10714255273342133 -0.0578596256673336
-0.07890255004167557 -0.06005040556192398 0.01690918393433094
0.029777754098176956 -0.0902068018913269 0.1287548542022705
-0.09264922887086868 0.05524393171072006 0.14313958585262299
-0.10105105489492416 0.22364845871925354 0.04160155728459358
-0.09590917825698853 0.1118420884013176 -0.028477143496274948
-0.0009755808860063553 -0.1589052826166153 0.44155609607696533
-0.11220955848693848 0.12468873709440231 0.3896975517272949
-0.056373950093984604 0.14686395227909088 0.20629853010177612
-0.08633671700954437 -0.10398692637681961 0.18516068160533905
-0.03084580972790718 -0.04955729842185974 0.049864545464515686
-0.028742816299200058 -0.11114491522312164 -0.060068558901548386
-0.07295045256614685 -0.057516712695360184 -0.027440614998340607
-0.0983513668179512 0.12807758152484894 -0.1174483448266983
-0.08312445878982544 0.08916596323251724 -0.020625848323106766
-0.08796510845422745 -0.005630467087030411 0.3607066571712494
0.12694767117500305 -0.0707680955529213 -0.11674682796001434
-0.06833018362522125 0.11968550831079483 0.08360499888658524
-0.06453481316566467 0.1653512716293335 0.036906834691762924
-0.01128917932510376 -0.11145950853824615 -0.01907292753458023
-0.01406208798289299 -0.061562832444906235 0.026456337422132492
0.05834449082612991 -0.08009370416402817 0.044727131724357605
-0.09616034477949142 0.08432609587907791 -0.011163419112563133
-0.0903378501534462 -0.09186563640832901 0.0036911368370056152
-0.001141650602221489 -0.07867349684238434 0.018555104732513428
-0.09715820848941803 0.13293205201625824 0.13966484367847443
-0.03815443813800812 -0.0831565260887146 0.0886642187833786
-0.10395114123821259 -0.04693462699651718 -0.28345367312431335
-0.11970505863428116 -0.05801614001393318 -0.22555436193943024
-0.10577493160963058 0.13838601112365723 -0.19281573593616486
-0.03969523683190346 -0.08971849828958511 0.1049441248178482
-0.07831046730279922 0.05062655359506607 0.24760206043720245
-0.0961015596985817 0.037827979773283005 -0.07766398787498474
0.027585318312048912 -0.08082344383001328 -0.045119091868400574
-0.05913585424423218 0.054041676223278046 -0.05854296684265137
-0.08808109164237976 0.10002528131008148 0.0918809100985527
-0.1383950412273407 0.02951764687895775 0.03812552988529205
0.12294625490903854 -0.0504673607647419 0.04938109219074249
-0.008891690522432327 -0.07712359726428986 0.01154741644859314
-0.07571706920862198 -0.07113881409168243 -0.008936023339629173
-0.07645797729492188 0.09688222408294678 0.10799261182546616
0.06748270988464355 -0.08755522221326828 -0.0412122905254364
0.010366968810558319 -0.10490824282169342 -0.08334942907094955
-0.10013671219348907 -0.03389313444495201 0.07889746874570847
0.07029605656862259 -0.1084517389535904 0.051927804946899414
0.0789613425731659 -0.08767544478178024 0.057708740234375
0.0507253035902977 -0.08636964857578278 -0.035083968192338943
-0.09298211336135864 0.03425614908337593 0.3146793246269226
-0.035530172288417816 0.05851798504590988 0.2387467920780182
-0.09011101722717285 -0.06423203647136688 -0.03700612112879753
-0.07233460992574692 0.20146983861923218 0.3826407492160797
-0.03965480998158455 -0.06876089423894882 0.1608239710330963
-0.11814887821674347 -0.06157056242227554 -0.027490202337503433
-0.015251299366354942 -0.08129993081092834 -0.038405902683734894
0.06857182830572128 -0.10040546953678131 0.2342987060546875
-0.07658889144659042 0.044473692774772644 0.18575775623321533
-0.003654971718788147 -0.12805093824863434 0.2696989178657532
-0.014917110092937946 -0.08563290536403656 -0.190359428524971
-0.09121812134981155 -0.05427268147468567 0.03401331603527069
-0.06322178989648819 -0.07192125171422958 -0.1668265461921692
-0.0875217467546463 -0.03403894603252411 -0.019336555153131485
0.2718041241168976 -0.08824432641267776 0.1597418487071991
0.04608219861984253 -0.10843023657798767 -0.3323122560977936
-0.0608997568488121 0.04483336955308914 -0.03316357359290123
0.028304211795330048 -0.08345608413219452 -0.09616474062204361
-0.035986848175525665 -0.15004323422908783 0.0404263399541378
-0.09168270230293274 0.15755589306354523 0.2975962460041046
-0.11178162693977356 0.09857377409934998 -0.03733133152127266
-0.11749987304210663 0.07772071659564972 -0.06466533243656158
-0.05335614085197449 -0.0876348540186882 -0.018994513899087906
-0.015815308317542076 -0.054145194590091705 -0.04500395432114601
-0.08920281380414963 -0.008273370563983917 0.06885172426700592
0.001100708730518818 -0.10141324251890182 -0.12036193162202835
0.0956432893872261 -0.0720958486199379 0.039005327969789505
0.03831472992897034 -0.1127106174826622 0.06357992440462112
-0.07868243008852005 -0.05848095566034317 -0.0031191296875476837
-0.11656063050031662 0.1175391748547554 0.2901420593261719
0.060300640761852264 -0.07912398874759674 0.13034331798553467
0.0791691467165947 -0.0719800814986229 -0.0041650934144854546
-0.08364790678024292 -0.10351520776748657 -0.21920983493328094
-0.09704511612653732 0.0738009512424469 -0.18718159198760986
-0.09521707892417908 0.08422130346298218 0.34897246956825256
-0.12192829698324203 0.03340290114283562 -0.2578207552433014
0.22155988216400146 -0.0724419578909874 0.1002672016620636
-0.02090632915496826 -0.12469585984945297 -0.03264184296131134
-0.10061721503734589 0.21537762880325317 -0.1448095440864563
-0.09536375105381012 0.08368654549121857 0.1394207775592804
-0.10176073014736176 0.0829506367444992 0.027189411222934723
-0.09940876066684723 0.009162349626421928 -0.3098418116569519
0.05109243839979172 -0.06194320321083069 0.3710397779941559
-0.1015360951423645 -0.0756232813000679 0.0765155628323555
-0.10076099634170532 0.03364204987883568 0.005184689536690712
-0.11314044892787933 0.10860352218151093 0.009173223748803139
-0.09864775836467743 0.1512989103794098 0.06975385546684265
0.1061132624745369 -0.050776444375514984 -0.28191179037094116
-0.07040426135063171 0.14079703390598297 0.1451711654663086
-0.027783658355474472 -0.10702626407146454 -0.33080822229385376
-0.02556454762816429 0.18009884655475616 -0.13555796444416046
-0.0812605693936348 -0.0443059541285038 -0.056717149913311005
-0.06637042760848999 0.0007710438221693039 0.09953612089157104
-0.06971342116594315 0.019024819135665894 -0.0940273255109787
-0.126840740442276 -0.06938466429710388 0.25432977080345154
-0.09706564247608185 -0.06878063082695007 0.05648290365934372
0.10392338037490845 -0.0684753879904747 -0.12929168343544006
-0.06424030661582947 0.22087718546390533 0.19747041165828705
0.12302912771701813 -0.0754876583814621 -0.1613890528678894
-0.11796121299266815 0.01238379254937172 0.45269784331321716
-0.03594318404793739 -0.07467547059059143 0.09203308075666428
-0.08456555008888245 0.14809182286262512 -0.12409880757331848
0.07502634823322296 -0.08134754747152328 -0.048039186745882034
-0.08265744149684906 0.05907673388719559 0.038274601101875305
0.09601008147001266 -0.08177873492240906 -0.05555019527673721
-0.095133475959301 -0.05416811257600784 0.021534530445933342
-0.09253261983394623 0.22541534900665283 -0.25141364336013794
-0.02367616631090641 -0.07232443243265152 -0.03253357484936714
-0.05580192431807518 -0.02861342951655388 -0.08156609535217285
-0.11441319435834885 -0.06770185381174088 -0.04454610124230385
0.046631284058094025 -0.09288989007472992 -0.14175528287887573
-0.13402238488197327 0.017375614494085312 -0.15824881196022034
-0.1010776162147522 0.04641284421086311 0.07572827488183975
-0.02153797447681427 -0.0875699371099472 0.06332606077194214
0.1421905755996704 -0.0951654240489006 0.00377483107149601
-0.0890902429819107 0.15777790546417236 -0.3285781145095825
-0.0773267075419426 0.12636396288871765 -0.06979435682296753
-0.09415826946496964 0.12142853438854218 0.050793495029211044
-0.09134107828140259 -0.032065004110336304 0.16182297468185425
0.04724302142858505 -0.11211691051721573 0.03257476165890694
-0.06312066316604614 0.16205766797065735 0.013497607782483101
0.06360338628292084 -0.10135401040315628 -0.08537405729293823
0.02200452610850334 -0.11479546874761581 0.1237592101097107
-0.0778932273387909 -0.0004144832491874695 0.1558144986629486
-0.026015307754278183 -0.09204719960689545 0.43663185834884644
-0.11705270409584045 0.08973842114210129 0.41698992252349854
-0.09374724328517914 -0.040376320481300354 -0.030606303364038467
-0.025166144594550133 -0.0864768773317337 0.027650821954011917
0.10723172873258591 -0.06020093336701393 -0.013289259746670723
0.11291039735078812 -0.08126771450042725 -0.07684368640184402
0.056145839393138885 -0.10052322596311569 0.3847404420375824
-0.0893767774105072 0.1789083033800125 0.11082060635089874
-0.08430767059326172 -0.06288443505764008 -0.042592648416757584
0.13861393928527832 -0.08772651106119156 0.3182414472103119
-0.028188388794660568 -0.0726768970489502 -0.1123642846941948
-0.06158116087317467 -0.0807342380285263 -0.06266289949417114
0.11138259619474411 -0.07792435586452484 0.12967492640018463
-0.06171776354312897 0.12884405255317688 -0.3319013714790344
0.04304281622171402 -0.0743870884180069 0.02280339226126671
0.07628963142633438 -0.061218470335006714 0.052984412759542465
-0.08288584649562836 -0.08957912027835846 -0.0167529359459877
0.0010854825377464294 -0.11144308000802994 -0.23821260035037994
0.25014007091522217 -0.05889111012220383 -0.09531033039093018
-0.07004857063293457 -0.05389150232076645 -0.2853360176086426
-0.1070612445473671 0.027128145098686218 0.012518897652626038
-0.028394954279065132 -0.08343275636434555 0.015358702279627323
-0.08782447129487991 -0.045554302632808685 -0.14300183951854706
-0.055726829916238785 -0.08240793645381927 -0.031383875757455826
-0.1048249751329422 -0.06500297039747238 -0.08257566392421722
-0.08276054263114929 -0.055307283997535706 0.43530452251434326
0.013450957834720612 -0.09245992451906204 0.31033122539520264
-0.07381251454353333 0.11084067821502686 0.10160162299871445
0.1290968656539917 -0.06491512060165405 0.060410793870687485
-0.06522146612405777 -0.09440931677818298 0.1258755922317505
0.12027270346879959 -0.09604116529226303 0.20310519635677338
0.0014507360756397247 -0.059136517345905304 -0.0029535964131355286
0.013697268441319466 -0.0795174092054367 0.20416419208049774
-0.09996001422405243 0.04998043179512024 0.12582893669605255
0.03336339816451073 -0.06853605061769485 -0.0739208459854126
-0.017985252663493156 -0.0846862718462944 -0.12144342064857483
-0.08368517458438873 -0.043406546115875244 0.2795497179031372
-0.1243799701333046 0.0527934730052948 -0.09443127363920212
0.07764829695224762 -0.0880817323923111 -0.0028885509818792343
0.1149369552731514 -0.0706099420785904 -0.04807575047016144
-0.07124315202236176 0.08747492730617523 -0.02197279781103134
0.11962929368019104 -0.06594540178775787 -0.009726165793836117
0.049273185431957245 -0.06147628650069237 0.026913519948720932
-0.012802381068468094 -0.07868044078350067 -0.04447358101606369
-0.1161189153790474 -0.03857314959168434 -0.1655304729938507
0.008779967203736305 -0.10409586876630783 0.33302757143974304
0.06744959950447083 -0.07918649911880493 -0.023628901690244675
0.0038400795310735703 -0.0888965055346489 0.025811536237597466
-0.03541376814246178 -0.11010800302028656 -0.12020999193191528
-0.07568047195672989 -0.05974341183900833 -0.23412108421325684
0.1485951840877533 -0.07673196494579315 0.15568113327026367
0.10461238026618958 -0.07212034612894058 0.015138143673539162
-0.07258202880620956 0.059723518788814545 0.06292687356472015
-0.08996051549911499 -0.006661934778094292 -0.15693660080432892
-0.08060005307197571 0.1432039737701416 0.1233617439866066
-0.08815336972475052 -0.08056987822055817 -0.06430406123399734
-0.09069187194108963 0.05384215712547302 0.23428702354431152
-0.03895678371191025 -0.12168221920728683 0.12561196088790894
0.05265948921442032 -0.06278105080127716 0.05444622412323952
-0.06545054912567139 0.061786264181137085 0.13146060705184937
0.12055623531341553 -0.10690011829137802 0.38918814063072205
-0.1041722446680069 -0.019661884754896164 0.42922326922416687
-0.11435501277446747 -0.053904250264167786 0.3941066861152649
0.022372661158442497 -0.07328394055366516 0.04338454082608223
-0.09340120106935501 0.03609040006995201 0.06876718997955322
0.038312431424856186 -0.07587870955467224 0.08221215009689331
0.11351912468671799 -0.0684247687458992 -0.1039653792977333
0.10690067708492279 -0.020134158432483673 -0.46074312925338745
-0.030006149783730507 0.17435859143733978 -0.03922027349472046
-0.07638173550367355 0.1347617357969284 0.12326917052268982
-0.0020165061578154564 -0.08792795985937119 0.15983757376670837
-0.09925441443920135 0.12452630698680878 0.1634107381105423
-0.11453937739133835 -0.0636209100484848 0.18638527393341064
-0.05719861760735512 -0.09754665940999985 -0.06298799067735672
0.010644936934113503 -0.12740632891654968 -0.039774127304553986
-0.09767001122236252 0.04145228490233421 -0.01039907243102789
-0.11803394556045532 0.12191615253686905 -0.05509409308433533
0.09767017513513565 -0.07240191102027893 -0.028804684057831764
-0.10867395997047424 0.07952053844928741 0.07402677834033966
0.053335703909397125 -0.05877649784088135 0.16309204697608948
0.0706050843000412 -0.05510343611240387 -0.03023957833647728
0.08184261620044708 -0.09514258801937103 -0.27148744463920593
0.3757307529449463 0.05977172404527664 0.14165064692497253
0.07482500374317169 -0.08270350098609924 -0.024649517610669136
-0.08346115052700043 0.2534812390804291 0.12494531273841858
-0.09094257652759552 -0.06524714082479477 -0.12213432043790817
-0.04248633235692978 -0.0831158459186554 -0.21116280555725098
-0.019999103620648384 -0.0736689567565918 0.1461360901594162
-0.03928428888320923 -0.0902312695980072 0.07797197252511978
-0.07180795818567276 -0.045368704944849014 0.2760060131549835
0.04272456467151642 -0.084360271692276 -0.13359670341014862
0.07033304125070572 -0.07960423827171326 0.15423883497714996
-0.12459738552570343 0.046003326773643494 -0.190109521150589
-0.018560044467449188 -0.06979250907897949 0.03623707592487335
-0.13756528496742249 0.059449851512908936 0.39452311396598816
-0.020381851121783257 0.13140273094177246 0.08962961286306381
-0.07700736820697784 0.13357685506343842 0.10013047605752945
-0.08749596029520035 -0.021603286266326904 0.05664549022912979
-0.09155869483947754 0.11320694535970688 0.4971335232257843
-0.11889137327671051 0.15327583253383636 -0.1794888824224472
0.01923385262489319 -0.08715997636318207 -0.0181778222322464
-0.08797949552536011 0.15235593914985657 0.03690918907523155
-0.07729610800743103 -0.044019341468811035 -0.014865245670080185
0.04804445058107376 -0.07179266959428787 0.12629352509975433
-0.011934906244277954 -0.06090017408132553 0.1352425217628479
-0.08687880635261536 0.09797030687332153 0.10699334740638733
-0.0854131430387497 -0.05913931131362915 -0.05001718923449516
0.19136874377727509 -0.07473375648260117 0.220697283744812
-0.08087827265262604 0.13904748857021332 -0.08714844286441803
-0.07666311413049698 0.2521018385887146 0.4446350932121277
0.07706375420093536 -0.06447543948888779 -0.13823255896568298
-0.09017755091190338 0.11712254583835602 -0.03196815401315689
0.09761600196361542 -0.08106492459774017 0.13141590356826782
-0.10286374390125275 -0.02449662610888481 0.0259970985352993
