-0.07602974772453308 0.021202310919761658 0.05853017047047615
0.14471247792243958 -0.07861243188381195 -0.1349850594997406
0.057793036103248596 -0.050194427371025085 -0.06456956267356873
-0.11542852222919464 -0.03379213809967041 -0.005252726376056671
-0.020039159804582596 -0.07943714410066605 -0.05034568905830383
0.1653946191072464 -0.017551718279719353 -0.04353334754705429
-0.09768976271152496 0.09632308036088943 0.30643871426582336
-0.028338950127363205 -0.06906825304031372 -0.29945123195648193
0.04269646108150482 -0.15131300687789917 0.23473212122917175
-0.01534276083111763 -0.13469576835632324 0.0873749852180481
-0.10596060752868652 0.10452146083116531 0.10209643840789795
-0.141670823097229 0.13037416338920593 -0.04467661678791046
-0.00016491208225488663 -0.12689031660556793 0.1629827618598938
-0.026895510032773018 -0.10596545040607452 -0.08389889448881149
0.1337137669324875 -0.04164499416947365 -0.3106774091720581
-0.06253036111593246 0.08814173936843872 0.029795287176966667
-0.02048397623002529 -0.15145984292030334 0.3383824825286865
-0.1206420511007309 -0.05380672216415405 0.023984111845493317
0.055438604205846786 -0.11973676830530167 -0.0030083227902650833
-0.11164087802171707 0.07253687083721161 0.04076019674539566
-0.0017473362386226654 0.05075552687048912 -0.17229342460632324
-0.08535492420196533 -0.07215757668018341 0.12557516992092133
0.053592778742313385 0.3942219913005829 0.015189224854111671
-0.01130896620452404 -0.0999896228313446 -0.34819495677948
0.1334839016199112 -0.06921815872192383 -0.2135120928287506
-0.10955867171287537 -0.03187355399131775 -0.10412656515836716
-0.075615294277668 0.02116314508020878 -0.31814417243003845
-0.06807827949523926 -0.09815071523189545 -0.23664137721061707
0.06368319690227509 -0.06053244322538376 -0.10624097287654877
-0.14782024919986725 0.04529529809951782 0.37542837858200073
0.08137401193380356 -0.006429603323340416 0.21910029649734497
-0.10813070833683014 0.19510996341705322 0.021551158279180527
-0.02802310511469841 -0.1412951797246933 0.016009287908673286
-0.09465475380420685 0.059793174266815186 0.13712546229362488
-0.14878903329372406 0.012867994606494904 -0.1827356219291687
-0.005729231983423233 0.11177093535661697 0.20372454822063446
-0.02257568947970867 -0.09267650544643402 0.09100690484046936
-0.09134593605995178 0.007884655147790909 -0.1935771256685257
-0.12682299315929413 0.1216316819190979 0.015845604240894318
-0.08765663951635361 -0.10157059133052826 -0.08770012110471725
0.038324031978845596 -0.12384945899248123 0.14095115661621094
-0.13029170036315918 0.03278732672333717 -0.0692921131849289
0.13870519399642944 -0.10544301569461823 0.047121040523052216
0.13952645659446716 -0.10585983097553253 0.10006692260503769
-0.07958609610795975 0.06922180205583572 0.09250176697969437
0.14257067441940308 -0.10120532661676407 0.2587924599647522
0.07574092596769333 -0.09943310916423798 -0.25645214319229126
-0.07819853723049164 0.1523197591304779 -0.140889972448349
-0.15071314573287964 0.09487772732973099 0.30425092577934265
-0.10298463702201843 -0.06850971281528473 -0.17186234891414642
0.005207136273384094 -0.08829785883426666 0.030083533376455307
0.053936153650283813 -0.09090568125247955 -0.04153139144182205
-0.10243934392929077 0.12771742045879364 0.12345147877931595
-0.12310419976711273 0.09953559935092926 0.09998807311058044
0.021191373467445374 -0.12090751528739929 -0.31062397360801697
-0.12069994956254959 0.037664756178855896 0.03183937445282936
-0.007185811176896095 0.05811126530170441 0.3930152654647827
-0.11321637034416199 0.13480958342552185 0.03711611405014992
-0.10888344794511795 0.04432892054319382 0.033511944115161896
0.15553785860538483 -0.07396447658538818 0.04012778773903847
-0.08505802601575851 0.09988588839769363 0.35803431272506714
0.06184336543083191 -0.10612723976373672 0.4405132830142975
-0.09963054955005646 0.25913065671920776 -0.13378754258155823
0.3084360659122467 -0.014296499080955982 -0.11148107051849365
-0.020302940160036087 0.052178993821144104 -0.4140859544277191
0.1211564913392067 -0.05844461917877197 0.006571730598807335
0.017218925058841705 -0.06760035455226898 0.028792334720492363
0.032231248915195465 -0.06511230021715164 -0.1074361801147461
-0.03278213366866112 -0.11410060524940491 0.44403260946273804
0.006596110761165619 -0.12916672229766846 -0.2180365025997162
-0.006259266287088394 0.16404299437999725 -0.03275424614548683
0.06720589101314545 -0.13129518926143646 0.1350024789571762
-0.116307333111763 0.009074054658412933 -0.0010551372542977333
0.013384200632572174 -0.07905595749616623 0.1337718367576599
-0.10773765295743942 0.14416320621967316 0.07513870298862457
0.241177499294281 -0.05653084069490433 -0.24144281446933746
-0.086333729326725 -0.06359037011861801 -0.043202102184295654
-0.009091416373848915 -0.07776859402656555 0.020396707579493523
0.12604683637619019 -0.007928012870252132 -0.03524990379810333
-0.11259511113166809 -0.10408627986907959 0.3323619067668915
-0.07372842729091644 -0.11077732592821121 0.2423885315656662
-0.028023172169923782 -0.09271617233753204 -0.06064474582672119
0.18180519342422485 -0.0721844807267189 0.013464120216667652
-0.11727398633956909 -0.0320591926574707 -0.0042084259912371635
-0.07299383729696274 -0.021718595176935196 0.11673666536808014
-0.09958048164844513 0.07112815976142883 -0.3659716546535492
0.10518690198659897 -0.06881413608789444 0.07919149845838547
0.08749682456254959 -0.05208873748779297 0.046043455600738525
-0.13497371971607208 -0.019934244453907013 0.1606382578611374
-0.0736989974975586 0.17808108031749725 -0.02300276793539524
-0.003677425906062126 -0.06650416553020477 0.013423139229416847
0.0669218897819519 -0.09010963886976242 -0.11212912946939468
-0.08159582316875458 -0.03311924636363983 0.20836520195007324
0.12664034962654114 -0.08006815612316132 -0.1046893373131752
0.015833646059036255 -0.0907491073012352 -0.1725778579711914
-0.10247188806533813 -0.02519375830888748 -0.14021342992782593
0.17535604536533356 -0.07106776535511017 -0.012568159028887749
0.054940640926361084 -0.06945118308067322 -0.029567554593086243
0.05573679879307747 -0.08787655830383301 -0.003201887244358659
-0.11352024227380753 0.166031152009964 0.009668026119470596
-0.032470814883708954 -0.06916213035583496 -0.15532313287258148
-0.08289872854948044 -0.07429679483175278 -0.1709400713443756
-0.13133157789707184 -0.008758831769227982 -0.02828531339764595
-0.05675559490919113 -0.04084132984280586 0.19561323523521423
-0.11243519186973572 -0.04009411484003067 0.10611046105623245
-0.09683609008789062 0.12075025588274002 -0.13602128624916077
-0.14747540652751923 0.02673274837434292 0.22073379158973694
0.1339348703622818 0.045916490256786346 0.22615456581115723
0.06516434997320175 -0.12198873609304428 -0.09328295290470123
0.10931205004453659 -0.13384726643562317 0.15390710532665253
0.16647173464298248 -0.11214162409305573 -0.1576402485370636
0.14731499552726746 -0.1000458374619484 0.0006082425825297832
-0.07750088721513748 0.18994423747062683 0.08112635463476181
-0.12249809503555298 0.08573959767818451 -0.01583113707602024
0.0018535060808062553 -0.08970248699188232 0.0644085481762886
-0.0042653679847717285 0.1507909595966339 0.15407592058181763
-0.06989999115467072 -0.08229085803031921 0.08351544290781021
-0.00399123877286911 -0.1015346497297287 -0.1886473447084427
-0.13094720244407654 -0.02054101973772049 0.02204674482345581
0.10655796527862549 -0.11017364263534546 0.1952984631061554
0.04060586541891098 -0.1001514419913292 -0.1464785933494568
-0.07706599682569504 0.025509662926197052 -0.12462905794382095
0.06089659035205841 -0.0975397527217865 0.050544340163469315
-0.016276614740490913 -0.08387111127376556 -0.07846993207931519
-0.14934386312961578 -0.004709118977189064 0.25780072808265686
0.08644901216030121 -0.03776365518569946 -0.046517618000507355
0.1413547694683075 -0.05839306861162186 0.05277494341135025
-0.06716170161962509 0.12844063341617584 -0.23491689562797546
-0.10832110047340393 0.12082113325595856 0.282609224319458
0.15997152030467987 -0.08580885827541351 0.011034185998141766
-0.03104853630065918 -0.13974162936210632 0.1925882250070572
-0.03701813146471977 0.2119961380958557 -0.07307898998260498
-0.10475055873394012 -0.017103997990489006 0.10721822082996368
0.1493879109621048 -0.07487265020608902 0.05248067528009415
-0.01283741183578968 0.032562874257564545 0.012853340245783329
-0.14339613914489746 0.14200831949710846 -0.23317821323871613
-0.1246141791343689 0.025185158476233482 0.0040215905755758286
-0.11805146187543869 -0.12447168678045273 0.06744200736284256
-0.05072407424449921 0.13901223242282867 0.13597840070724487
-0.07247468084096909 0.11157773435115814 0.03849910944700241
-0.11158333718776703 0.015738239511847496 -0.03418280929327011
0.13150061666965485 -0.0765782818198204 0.005965034477412701
-0.08321911096572876 0.12468443810939789 0.08989907056093216
-0.03590266406536102 0.16704455018043518 0.05259713903069496
0.05846574902534485 -0.11111459136009216 0.2515770494937897
-0.11772499978542328 0.06442756950855255 0.2740110754966736
-0.03599574789404869 -0.08419154584407806 0.06034098565578461
-0.12544214725494385 -0.036946553736925125 0.09351536631584167
0.09998408704996109 -0.0875297486782074 0.056350842118263245
0.030337929725646973 0.015216258354485035 -0.062191542237997055
0.07828980684280396 -0.08059443533420563 0.033883269876241684
0.01758810319006443 -0.09422408789396286 0.01521533913910389
-0.07921655476093292 0.03540676832199097 0.11075140535831451
-0.13335445523262024 0.14235682785511017 -0.19342564046382904
0.1533391773700714 -0.11015637964010239 0.13964304327964783
-0.01414696965366602 -0.06962116807699203 -0.06565774977207184
-0.029276171699166298 -0.09405834972858429 -0.12215156853199005
-0.11932945251464844 0.21474286913871765 -0.04031968116760254
-0.06053542718291283 0.1758195012807846 0.06713774800300598
0.0919632688164711 -0.08772014081478119 -0.007842500694096088
-0.11356032639741898 -0.12412983924150467 -0.05017287656664848
-0.04169280827045441 -0.06486965715885162 -0.05391501635313034
-0.0645895004272461 0.13032637536525726 -0.36288371682167053
-0.10928350687026978 0.06136553734540939 0.0877920389175415
-0.06645885854959488 -0.09682460129261017 -0.1570843607187271
0.09316422045230865 -0.039736662060022354 -0.018241701647639275
-0.10759346187114716 -0.01969132572412491 -0.0556974895298481
0.20567543804645538 -0.08486419171094894 0.061325836926698685
0.07253091037273407 -0.080222487449646 -0.05080903321504593
-0.01225619949400425 -0.1177617758512497 0.03102659434080124
-0.04308334365487099 -0.07117319852113724 -0.03160380572080612
-0.06184529513120651 0.13302242755889893 0.043934695422649384
0.07454842329025269 -0.10529450327157974 -0.004721257835626602
0.13408483564853668 -0.0989820808172226 -0.06899598240852356
-0.07933063060045242 -0.039610669016838074 0.03338031843304634
-0.1159590482711792 0.05796409398317337 0.07393114268779755
-0.03965269774198532 0.26569482684135437 0.10911360383033752
-0.07637664675712585 -0.07061105221509933 -0.05584123730659485
0.05244177207350731 -0.029231954365968704 -0.0710369348526001
0.26511332392692566 0.02410264126956463 0.3525253236293793
-0.12919411063194275 -0.07832122594118118 0.20117934048175812
0.010434290394186974 -0.06501737236976624 0.0962110087275505
-0.11312582343816757 -0.022198721766471863 0.07788966596126556
-0.07103630900382996 0.1363336592912674 0.07223803550004959
-0.09432746469974518 -0.055084217339754105 0.007932264357805252
0.1465558558702469 -0.09121056646108627 -0.11504225432872772
0.1546718031167984 0.0026146303862333298 0.5410662889480591
0.09842933714389801 -0.074067622423172 -0.08995646238327026
-0.07416608929634094 0.2765488922595978 0.27476614713668823
-0.15244922041893005 -0.0332053005695343 0.047751009464263916
0.14969441294670105 -0.01023982372134924 -0.13601785898208618
-0.06078621372580528 0.117131806910038 0.22433598339557648
0.058771729469299316 -0.11227764934301376 0.010634628124535084
-0.08254702389240265 -0.09660505503416061 -0.05763264000415802
-0.08729011565446854 -0.005747037939727306 0.149070143699646
-0.10758236795663834 -0.006356775760650635 -0.14185793697834015
-0.1288602203130722 0.12686149775981903 -0.04453929141163826
-0.07740730047225952 -0.07290542125701904 0.10284864157438278
-0.006383564323186874 -0.11627029627561569 0.32053831219673157
-0.08211565762758255 0.10854779183864594 -0.17627322673797607
0.0038841478526592255 -0.08150092512369156 -0.02353983372449875
0.12464358657598495 -0.0849456936120987 0.00989626720547676
-0.022321008145809174 0.009066378697752953 -0.30775895714759827
-0.04660005867481232 -0.04812789708375931 0.07999859005212784
-0.11579513549804688 0.07340046763420105 0.041202113032341
0.06797643005847931 -0.09757192432880402 0.03056558594107628
-0.045503973960876465 -0.08631645888090134 0.0075638070702552795
-0.09694435447454453 -0.09460420906543732 0.08118081092834473
0.08618602901697159 -0.12235269695520401 0.03756701201200485
-0.13608717918395996 0.038221217691898346 0.04522870108485222
-0.08518015593290329 0.12744972109794617 -0.021568644791841507
-0.039737552404403687 -0.12018951773643494 0.03640256077051163
-0.14844802021980286 0.12615427374839783 0.16667984426021576
-0.11199196428060532 0.057716283947229385 -0.31809163093566895
-0.029484525322914124 -0.01615443080663681 0.11943688243627548
-0.09695637226104736 -0.08609838038682938 -0.0922960489988327
-0.0881895199418068 0.05763988196849823 0.06550481170415878
-0.12795403599739075 0.013027321547269821 -0.027077646926045418
0.06662626564502716 -0.08352751284837723 -0.1833999752998352
0.10791406780481339 -0.09587331116199493 0.0006912116659805179
0.1711145043373108 -0.00011087581515312195 -0.07086729258298874
0.036274053156375885 -0.1011606827378273 -0.05229678750038147
0.07262836396694183 -0.024698136374354362 0.0644926056265831
-0.06529349088668823 0.1496914178133011 0.10807686299085617
-0.08673620223999023 0.13512496650218964 0.03905539959669113
-0.09584790468215942 0.1328652948141098 0.057141080498695374
0.03911544010043144 -0.0671485885977745 0.009016703814268112
-0.10131809115409851 0.16349974274635315 0.1044883280992508
-0.05252797156572342 0.12747210264205933 0.19903895258903503
0.12726691365242004 -0.06243003159761429 -0.14378908276557922
0.007701118476688862 -0.05931641161441803 0.02397330291569233
-0.12461796402931213 0.015464724972844124 -0.08604399859905243
0.06916961073875427 -0.10559406876564026 0.18275299668312073
-0.08993406593799591 0.04728297144174576 -0.11790786683559418
0.032203562557697296 -0.07781445980072021 0.09451455622911453
0.08438872545957565 -0.0897785872220993 -0.04251758009195328
-0.0734313428401947 0.09355940669775009 0.14679859578609467
-0.14687761664390564 0.05027756839990616 -0.001765349879860878
-0.05638173222541809 0.002559866290539503 -0.42676252126693726
-0.09721904993057251 0.14597852528095245 0.1060752272605896
-0.026442838832736015 -0.11202128231525421 0.016618743538856506
-0.11643967777490616 0.12255434691905975 0.05419068783521652
-0.13679328560829163 0.09941992908716202 0.025940364226698875
-0.09383222460746765 0.07524864375591278 0.0730472058057785
0.09330379962921143 -0.108786940574646 0.16177241504192352
-0.10019154101610184 0.17970804870128632 0.24686498939990997
0.02999310940504074 -0.11888697743415833 0.3165875971317291
0.07602746039628983 -0.10121528804302216 0.023520248010754585
-0.10471484065055847 0.04672830179333687 -0.1487671434879303
0.04847615957260132 -0.09525975584983826 0.1836959570646286
-0.01957392878830433 -0.08251341432332993 0.012505696155130863
-0.12619654834270477 0.14209625124931335 -0.008201317861676216
0.12981818616390228 -0.06334587931632996 0.09432920813560486
-0.0741581991314888 0.17676642537117004 0.08932776004076004
-0.007781265303492546 -0.07766404747962952 0.14672106504440308
-0.08868461847305298 -0.09830795973539352 -0.04548855125904083
-0.11132679879665375 0.0011048801243305206 -0.0023383041843771935
-0.11336129903793335 0.13555343449115753 0.2505478262901306
0.1624159812927246 -0.030598394572734833 0.1051514521241188
-0.0806795060634613 0.014778530225157738 -0.23849426209926605
-0.08764028549194336 0.14411106705665588 -0.15021437406539917
-0.011613249778747559 -0.03399444743990898 0.08252058923244476
0.016189653426408768 -0.09195902943611145 0.009721152484416962
0.10944672673940659 -0.0967644602060318 -0.03798138350248337
-0.06921552121639252 -0.011747375130653381 0.14423754811286926
0.004471957683563232 -0.09359025955200195 0.07550467550754547
-0.164059117436409 -0.09527967125177383 -0.26400670409202576
-0.08363533020019531 -0.032869402319192886 -0.019461382180452347
-0.010618485510349274 -0.10442961752414703 -0.0746251791715622
0.12861666083335876 -0.1253581941127777 0.39514899253845215
-0.08017739653587341 -0.0842328667640686 0.3202340304851532
0.15172074735164642 -0.06567558646202087 0.36006075143814087
0.07369520515203476 -0.04817343130707741 -0.3203972280025482
0.040622368454933167 -0.05725524574518204 0.08735024929046631
-0.017787277698516846 -0.07697007060050964 -0.15939992666244507
-0.0977405458688736 -0.0957355797290802 0.1615774780511856
0.12005126476287842 -0.07057783007621765 -0.032574355602264404
-0.10379590839147568 0.04357360303401947 0.06808219105005264
0.08122645318508148 -0.04952066391706467 -0.2073480188846588
0.05116412043571472 -0.05899016931653023 0.03918904811143875
-0.12129974365234375 0.0352385938167572 -0.017324775457382202
0.09303867816925049 -0.09183037281036377 0.0259084515273571
-0.10042018443346024 -0.12824374437332153 0.0062438324093818665
0.12447772920131683 -0.11474467813968658 -0.011223431676626205
0.044685348868370056 -0.08815769106149673 0.05784056335687637
0.008489063009619713 -0.04577760398387909 -0.056166622787714005
-0.11902306973934174 0.12296365201473236 -0.052678219974040985
-0.01271449401974678 -0.07694899290800095 0.06261380761861801
0.05719591677188873 -0.11670517921447754 -0.0601617656648159
0.15318888425827026 -0.08607468754053116 0.02541522867977619
0.09419766068458557 -0.0951281189918518 -0.12799379229545593
-0.12317267805337906 0.06023770570755005 -0.2292804718017578
-0.07186867296695709 -0.04522854834794998 -0.04463610798120499
0.05417585372924805 -0.12176704406738281 -0.005393560044467449
-0.07556088268756866 0.07818160951137543 -0.012829179875552654
-0.05659325420856476 0.19660323858261108 0.02068895660340786
0.01323726773262024 -0.12509556114673615 0.4295990467071533
-0.0817374736070633 0.1536671668291092 0.17511653900146484
0.056643664836883545 -0.09233752638101578 0.035075098276138306
0.026193751022219658 0.14560435712337494 -0.4391796886920929
0.08966064453125 -0.07177285850048065 0.023951703682541847
0.05564924702048302 -0.06909643113613129 0.07930663228034973
-0.07968537509441376 -0.05781934782862663 -0.041964128613471985
0.07027364522218704 -0.11243724822998047 -0.10319313406944275
-0.03569544851779938 -0.11053737998008728 0.056522585451602936
0.07263000309467316 -0.04663671925663948 0.06042793393135071
-0.12730401754379272 0.009206192567944527 -0.02417733334004879
0.018147584050893784 -0.10781800746917725 0.11732834577560425
0.05046810954809189 -0.05406695604324341 -0.1315140426158905
-0.08367141336202621 -0.05993343144655228 0.4554133117198944
0.12974470853805542 -0.08455251902341843 0.020939664915204048
0.10697908699512482 -0.0822700709104538 -0.034036554396152496
0.08969548344612122 -0.06410876661539078 -0.04968363419175148
0.09890514612197876 -0.04221693053841591 0.07357392460107803
-0.10080964118242264 0.018146038055419922 0.16206985712051392
-0.09225468337535858 0.18278086185455322 -0.27446818351745605
0.08711867034435272 -0.11084587126970291 0.032641321420669556
-0.10758259892463684 -0.10422249138355255 -0.019312094897031784
-0.11517242342233658 0.12445098161697388 0.23131810128688812
0.059084177017211914 -0.08361378312110901 -0.03741251677274704
0.05334315821528435 -0.11564995348453522 -0.16469281911849976
0.08342085778713226 -0.08414894342422485 -0.0051917824894189835
-0.0983259305357933 0.03870275616645813 -0.19411927461624146
0.010882364585995674 -0.11946175992488861 -0.09195296466350555
0.15480880439281464 -0.0759008452296257 0.037830423563718796
-0.10825029760599136 0.18378761410713196 -0.13626138865947723
-0.012772704474627972 -0.08792249113321304 0.03144858777523041
-0.11127178370952606 0.14225974678993225 0.24606409668922424
0.21132494509220123 -0.08401085436344147 0.0914623960852623
-0.10165706276893616 0.06761229038238525 0.19724306464195251
0.18688532710075378 0.09746256470680237 0.42965057492256165
0.07835563272237778 -0.10183770954608917 -0.1130731850862503
0.06854027509689331 -0.08055312931537628 -0.05992785096168518
-0.10586182773113251 -0.13120250403881073 0.14105841517448425
0.043074578046798706 -0.09354925900697708 -0.03923264145851135
-0.11012886464595795 -0.03181585669517517 0.20446635782718658
-0.011493688449263573 -0.08372465521097183 -0.010152631439268589
0.29851993918418884 -0.060237299650907516 0.03880026936531067
0.0524853877723217 -0.08944985270500183 -0.020114237442612648
0.18387821316719055 -0.037299998104572296 -0.3146299719810486
-0.04277011752128601 0.15459823608398438 -0.129974365234375
-0.07728487253189087 0.174703910946846 0.09651713073253632
-0.057132452726364136 -0.07122352719306946 0.12303240597248077
-0.10848138481378555 0.10047987103462219 -0.18695417046546936
0.09189395606517792 -0.011359153315424919 -0.46722906827926636
-0.12384769320487976 -0.07000613957643509 0.10977701842784882
-0.04814077168703079 -0.11245667934417725 0.3004688322544098
-0.12661652266979218 0.04273629188537598 0.1488359123468399
-0.10940738022327423 -0.02972487360239029 0.16361457109451294
0.01283324509859085 -0.12235286086797714 -0.04126352071762085
-0.0859500914812088 0.057866983115673065 -0.02933647856116295
-0.10448305308818817 -0.08777715265750885 0.17268095910549164
-0.05391944199800491 -0.07653793692588806 0.054910808801651
-0.0585317388176918 0.14823120832443237 0.035618916153907776
-0.08245118707418442 0.035248205065727234 -0.040865588933229446
-0.03567156940698624 -0.09962539374828339 0.05566973239183426
0.1494428515434265 -0.05304216593503952 0.01385434903204441
0.10037153214216232 -0.0022250451147556305 0.25580838322639465
0.0013587307184934616 -0.038220033049583435 -0.2611212730407715
0.15875305235385895 -0.05554572492837906 -0.17487934231758118
0.09475173056125641 -0.0750812441110611 -0.021862955763936043
0.13628797233104706 -0.07240046560764313 0.018571630120277405
-0.10926160216331482 0.17148306965827942 -0.009803203865885735
-0.051854152232408524 -0.040219105780124664 -0.09285643696784973
-0.07444532215595245 0.11112547665834427 -0.12231948971748352
-0.06624273210763931 0.06564924865961075 -0.20905929803848267
-0.10176289826631546 -0.05704627186059952 0.1850091814994812
0.005341002717614174 -0.11491148173809052 0.08397028595209122
-0.10066332668066025 -0.06749146431684494 -0.023923272266983986
0.14084947109222412 -0.03813152387738228 0.06119497865438461
-0.0942470133304596 -0.05055287480354309 0.11609318107366562
0.07593326270580292 -0.11514712125062943 0.21655279397964478
-0.1403135359287262 0.06495244801044464 0.008355462923645973
0.04844275861978531 -0.08993245661258698 -0.25156599283218384
0.014404336921870708 -0.09299355745315552 0.1778750866651535
-0.03712043911218643 0.13567394018173218 -0.19151879847049713
-0.08428893983364105 -0.06264238059520721 0.004367271438241005
0.049965422600507736 -0.11129304766654968 0.006110094487667084
-0.029253656044602394 -0.11517228931188583 -0.17688852548599243
-0.08801554143428802 0.07234153151512146 0.06816671788692474
0.24754828214645386 -0.08983214199542999 -0.009434675797820091
-0.030090421438217163 0.17260649800300598 -0.22583939135074615
-0.09507949650287628 -0.016718827188014984 0.4054515063762665
0.0399945005774498 -0.10181135684251785 -0.03198052570223808
-0.07900145649909973 0.029577283188700676 0.023289930075407028
-0.1304537057876587 0.0525604709982872 0.011047457344830036
0.06220616400241852 -0.10403205454349518 -0.0920577421784401
-0.04642769694328308 0.10093975067138672 0.1365986168384552
0.00578231830149889 -0.1277521848678589 -0.19060230255126953
-0.043154433369636536 -0.0917525440454483 -0.16189223527908325
-0.004801273345947266 0.09049378335475922 -0.3010825514793396
-0.08884388953447342 0.037640251219272614 0.05836492031812668
0.12035251408815384 -0.015547031536698341 -0.3518282473087311
-0.052064646035432816 -0.017881622537970543 -0.12117087841033936
-0.062312789261341095 0.16837890446186066 -0.01536440011113882
-0.11931253969669342 -0.11309989541769028 0.21018989384174347
-0.12508369982242584 -0.026408430188894272 -0.07210485637187958
-0.10810143500566483 0.15875859558582306 -0.079465351998806
-0.029586531221866608 -0.08013293892145157 -0.06884559243917465
0.019591018557548523 -0.11201608926057816 0.0035327691584825516
-0.11698716878890991 -0.07878771424293518 -0.06497062742710114
-0.03273274004459381 -0.08486957848072052 -0.028235573321580887
-0.14831873774528503 0.15167875587940216 0.19893869757652283
0.15225429832935333 -0.033196307718753815 -0.10818026214838028
-0.00961076095700264 -0.07085955888032913 0.06005227565765381
-0.11193468421697617 -0.059613022953271866 -0.018096640706062317
-0.07679332792758942 -0.030550803989171982 0.015395542606711388
-0.08627620339393616 -0.07361994683742523 0.18896473944187164
0.05244175344705582 -0.016568470746278763 -0.07829517871141434
-0.09731334447860718 0.052351921796798706 0.14353549480438232
0.008950524032115936 -0.028922906145453453 -0.0324292927980423
-0.14433039724826813 0.005689885932952166 -0.22305399179458618
0.03880131617188454 -0.054190199822187424 -0.08407196402549744
-0.14081671833992004 0.09033069759607315 0.24512211978435516
-0.005898972041904926 -0.0703655481338501 -0.008884383365511894
0.024010339751839638 0.00549684464931488 0.4485836625099182
0.166515052318573 -0.08319234102964401 -0.25232642889022827
0.42600610852241516 0.09330938756465912 0.31242483854293823
-0.02392975240945816 -0.09792283922433853 0.06397828459739685
0.03628463298082352 -0.03285125643014908 -0.5625501871109009
-0.09590552002191544 -0.07702946662902832 0.004647752270102501
-0.035538412630558014 -0.03235384821891785 0.08573480695486069
0.09160961210727692 -0.07019089162349701 0.03888390213251114
0.0034643220715224743 -0.07381736487150192 0.012469030916690826
-0.05872541666030884 -0.05056240037083626 0.14431139826774597
-0.04607733339071274 0.07001329958438873 0.11267635226249695
0.16021370887756348 -0.06828628480434418 -0.14172042906284332
0.07194142788648605 -0.11580701917409897 -0.02091807872056961
-0.0058654434978961945 -0.08654599636793137 0.056331735104322433
-0.10334864258766174 -0.08732332289218903 -0.20810863375663757
-0.1460839956998825 0.04604104161262512 0.04234153404831886
-0.09599979966878891 -0.03683580458164215 0.026675833389163017
-0.06383634358644485 -0.11523737013339996 -0.0975705087184906
-0.11478197574615479 -0.07855556905269623 -0.05449139326810837
0.15818189084529877 -0.08641299605369568 0.11594260483980179
-0.09550385922193527 0.0022104009985923767 0.1062001958489418
-0.05029729753732681 -0.10828317701816559 -0.14982637763023376
0.06427270919084549 -0.08049102127552032 0.00815938413143158
0.1343485713005066 -0.09636488556861877 -0.0597221739590168
-0.06831976026296616 0.019148975610733032 0.11743806302547455
-0.09383522719144821 0.14611133933067322 -0.08183110505342484
0.0018566250801086426 0.12089309096336365 0.044413648545742035
-0.07137063890695572 0.0015030913054943085 -0.011176923289895058
0.09094981849193573 -0.06258413195610046 -0.02095780521631241
-0.09373068809509277 0.057638153433799744 0.04403608664870262
-0.10114185512065887 0.1077873557806015 0.18688848614692688
-0.05303681641817093 -0.04029223322868347 -0.11462616175413132
0.09354569762945175 -0.05221356451511383 -0.01986611634492874
-0.10606206953525543 -0.06548479944467545 -0.054298561066389084
-0.0437953844666481 -0.045653119683265686 0.2731609046459198
-0.10276161879301071 0.11956112086772919 0.03924039006233215
-0.08423255383968353 0.08555656671524048 0.07181558012962341
-0.04105097055435181 -0.092470183968544 0.047202832996845245
-0.26777929067611694 0.12450215965509415 0.5991570949554443
0.055348046123981476 -0.1362331062555313 -0.04260830581188202
-0.09335543215274811 0.06826145201921463 -0.1016174927353859
-0.10805924236774445 -0.01794978603720665 -0.12451730668544769
-0.06523551046848297 0.13422368466854095 -0.007367270067334175
0.25930213928222656 -0.020252173766493797 -0.040665287524461746
-0.10310395061969757 -0.055982790887355804 -0.02309989556670189
-0.047775521874427795 -0.09351347386837006 0.39757803082466125
-0.10368223488330841 0.012384391389787197 0.01533068623393774
-0.1299981325864792 -0.00827324204146862 0.06541886925697327
0.09581255912780762 -0.05771910399198532 0.06589672714471817
0.11375190317630768 -0.12894801795482635 0.003962811082601547
-0.027624284848570824 0.04574152082204819 0.11104707419872284
-0.08404099196195602 -0.08288183063268661 0.0937529057264328
-0.014528208412230015 -0.13630852103233337 -0.10519246011972427
-0.014282524585723877 -0.15075504779815674 0.25331875681877136
0.14222154021263123 -0.015488192439079285 0.15529850125312805
0.08554579317569733 -0.08376438170671463 0.06965364515781403
-0.027254736050963402 -0.08627917617559433 0.030567163601517677
0.09224057197570801 -0.02176234871149063 -0.12969504296779633
-0.0504419319331646 -0.07609590888023376 0.21694780886173248
-0.14636698365211487 0.04634784907102585 -0.07104566693305969
-0.05670543015003204 -0.04279782995581627 0.17270700633525848
0.2645708918571472 -0.10484154522418976 0.4264580309391022
-0.09099855273962021 -0.05844487249851227 0.045439958572387695
0.10276462882757187 -0.12076832354068756 -0.11310731619596481
0.0026965271681547165 0.04417217895388603 0.2652404010295868
0.01915944553911686 -0.1123112216591835 0.023924658074975014
0.06204909086227417 -0.0892806127667427 -0.010965263471007347
0.1037895455956459 -0.018095707520842552 -0.02306492254137993
0.007141837850213051 -0.06907886266708374 -0.24600772559642792
0.06225292384624481 -0.10004645586013794 0.05079244077205658
0.04944028705358505 -0.09759210795164108 -0.12869344651699066
-0.013377346098423004 -0.1199268251657486 0.0051427073776721954
-0.06660585850477219 -0.03444485366344452 -0.034439533948898315
0.3267897963523865 0.03147983178496361 -0.06434334069490433
0.13463057577610016 -0.10703201591968536 -0.1958940476179123
0.06065677851438522 -0.10152723640203476 -0.13384923338890076
-0.006739052943885326 -0.14151526987552643 -0.09903112053871155
-0.09137465059757233 0.20230108499526978 0.11862137168645859
-0.10617510974407196 0.0003315899521112442 0.04113146662712097
-0.031878720968961716 -0.10959924012422562 0.24157066643238068
-0.006236940622329712 -0.13225936889648438 -0.08915446698665619
-0.09293284267187119 0.06449303030967712 0.24680601060390472
-0.09772782027721405 0.01842602901160717 0.096223384141922
0.007363680750131607 -0.06687703728675842 0.11497678607702255
0.14286209642887115 0.041570089757442474 0.6301599740982056
-0.13155625760555267 0.0827091634273529 0.21341931819915771
0.04276334121823311 -0.07262678444385529 -0.0051818531937897205
-0.07269695401191711 -0.08360103517770767 0.05674955993890762
-0.09629186987876892 0.14755463600158691 0.052066899836063385
-0.11685220152139664 0.09854646772146225 0.2209460437297821
0.06945094466209412 -0.02282588928937912 -0.03567890822887421
-0.009269293397665024 -0.08796285837888718 -0.13888052105903625
-0.11939752101898193 0.1603797972202301 0.35111498832702637
0.1706448644399643 -0.06532792001962662 -0.18074288964271545
-0.12756983935832977 0.15983757376670837 0.1742069572210312
-0.146304652094841 0.011940095573663712 -0.10478036850690842
0.03376536816358566 0.293478786945343 -0.08047782629728317
0.0931384265422821 -0.088585764169693 0.15784995257854462
-0.04768640547990799 -0.07537419348955154 0.03224710747599602
-0.06055178865790367 0.14417678117752075 0.058437280356884
-0.03006117045879364 -0.1304693967103958 -0.04026687145233154
-0.05658724904060364 -0.016279323026537895 0.035392601042985916
-0.09539630264043808 0.17939144372940063 -0.00191423948854208
-0.11777272075414658 -0.035057079046964645 0.09191595017910004
-0.057594191282987595 -0.03184794262051582 0.23955345153808594
0.12816542387008667 -0.0798286572098732 0.002863030880689621
-0.08274776488542557 -0.004786217585206032 0.046811286360025406
-0.00029581785202026367 -0.07736432552337646 0.015207093209028244
0.17764675617218018 -0.058661505579948425 -0.08975942432880402
0.1363627016544342 -0.08359034359455109 0.15095382928848267
-0.04523654282093048 0.08538655936717987 -0.04375188797712326
-0.012922907248139381 -0.05315803736448288 0.006178178824484348
0.06541223078966141 -0.04329685866832733 -0.08558280766010284
0.14466269314289093 -0.06943430006504059 0.0006400067359209061
-0.027708644047379494 -0.10201606154441833 0.08065889775753021
0.03862108290195465 -0.10159023851156235 -0.08244384080171585
-0.08224587887525558 0.0879211276769638 -0.16123589873313904
-0.10269191861152649 0.1217370554804802 0.048256516456604004
0.0392732173204422 -0.13492351770401 -0.14150497317314148
-0.07727249711751938 -0.08196523040533066 0.07246387004852295
0.011564665473997593 0.4598000943660736 0.3639470338821411
0.008527700789272785 -0.08115038275718689 0.016957523301243782
-0.062119826674461365 -0.07334806025028229 0.04695821553468704
-0.007704190909862518 -0.10418836027383804 0.1438429057598114
-0.1055154949426651 0.10550563782453537 0.09995894134044647
-0.0967448353767395 0.29508665204048157 0.04618430882692337
-0.11823353916406631 0.09436985850334167 -0.024660583585500717
0.03907398506999016 -0.10412506759166718 0.35808131098747253
-0.07233428955078125 0.18886956572532654 0.37797147035598755
-0.05645578354597092 0.14529627561569214 0.1258266419172287
-0.08270737528800964 -0.09107891470193863 0.20161980390548706
-0.07306461036205292 -0.057410385459661484 0.053996507078409195
-0.010798086412250996 -0.03385699540376663 -0.033030226826667786
-0.10425933450460434 -0.05191539600491524 -0.041701797395944595
-0.09782584011554718 0.13038039207458496 -0.03487490117549896
-0.13378961384296417 0.023758914321660995 0.0001230929046869278
-0.11278396099805832 -0.013584066182374954 0.336651474237442
0.11651019006967545 -0.04308794438838959 -0.10048559308052063
-0.08433458209037781 0.1650300770998001 0.07606232911348343
-0.1071043387055397 0.15519218146800995 0.018135974183678627
0.024763254448771477 -0.08225265890359879 -0.11109347641468048
-0.033743951469659805 -0.12590518593788147 0.014012189581990242
0.10629238933324814 -0.09263019263744354 0.1333705186843872
-0.10018374025821686 0.027815919369459152 0.004845123738050461
-0.026738742366433144 -0.07701793313026428 -0.05311669781804085
-0.05074172466993332 -0.07150112092494965 0.012665104120969772
-0.09189922362565994 0.07562269270420074 0.11444587260484695
-0.026495536789298058 -0.056902285665273666 0.07587224245071411
-0.12723428010940552 -0.039229001849889755 -0.32340124249458313
-0.08806902170181274 -8.315220475196838e-05 -0.27177950739860535
-0.06070530414581299 0.1196691244840622 -0.16517893970012665
-0.04241570085287094 -0.08154154568910599 0.13396777212619781
-0.09075460582971573 0.07752655446529388 0.19612883031368256
-0.10222192853689194 0.04087192565202713 -0.10412946343421936
0.07263270765542984 -0.10513360053300858 -0.03481444716453552
-0.09587918221950531 0.20206543803215027 -0.08613419532775879
-0.10044936835765839 0.021159615367650986 0.009574778378009796
-0.039281487464904785 0.05665341019630432 -0.08640632033348083
0.05648302286863327 -0.09201698005199432 0.1352052539587021
0.05854507163167 -0.1340768039226532 0.05281813442707062
-0.11909863352775574 -0.051601309329271317 -0.021062888205051422
-0.07610205560922623 0.13708317279815674 0.13142083585262299
0.030767207965254784 -0.0727999210357666 0.025904320180416107
-0.03254523500800133 -0.061209701001644135 -0.021972108632326126
-0.08559703081846237 0.0037660785019397736 0.07682845741510391
0.04043830558657646 -0.01920314133167267 0.04118208587169647
0.12227994203567505 -0.08766073733568192 0.07772146910429001
0.03490516170859337 -0.09553125500679016 -0.23599007725715637
-0.10043109953403473 -0.0013390164822340012 0.3294138014316559
0.004888463765382767 0.051773957908153534 0.32214316725730896
-0.006173539906740189 -0.08675903081893921 -0.03283151239156723
-0.021067125722765923 0.1669507920742035 0.2897796034812927
-0.028746120631694794 -0.034101296216249466 0.0977543517947197
-0.03301575779914856 -0.059833504259586334 -0.05261831358075142
0.022529663518071175 -0.11142881959676743 -0.02370947226881981
0.034896571189165115 -0.0979255959391594 0.23327121138572693
-0.13672301173210144 0.04632122814655304 0.20309807360172272
-0.05629611760377884 -0.06478424370288849 0.2941895127296448
0.015534395352005959 -0.12064960598945618 -0.24958913028240204
-0.09076683223247528 -0.07192844897508621 0.02698456682264805
-0.05152347683906555 -0.05226360261440277 -0.2544211149215698
-0.09561484307050705 -0.07858975231647491 -0.03437667712569237
0.25564122200012207 -0.08514818549156189 0.17496074736118317
0.014071207493543625 -0.06576810032129288 -0.3317435085773468
-0.11205268651247025 0.055051110684871674 0.0038925502449274063
-0.025351479649543762 -0.0982680395245552 -0.020673710852861404
-0.012605132535099983 0.0111155416816473 -0.03215591609477997
-0.04738641157746315 0.1235601156949997 0.3201293647289276
-0.14360906183719635 -0.04246658459305763 -0.10948430001735687
-0.10860534757375717 0.09327498823404312 -0.03825726732611656
-0.058592990040779114 -0.1115175262093544 -0.025422802194952965
-0.039897091686725616 -0.07424387335777283 -0.10562969744205475
-0.054034434258937836 -0.05157005786895752 0.02045050635933876
-0.022829214110970497 -0.12677621841430664 -0.1375298947095871
0.0788385197520256 -0.055028285831213 -0.011812671087682247
0.0420757532119751 -0.048514630645513535 0.14543165266513824
-0.11100959777832031 -0.05099587142467499 -0.08728501200675964
-0.07187271118164062 0.11942647397518158 0.28002500534057617
0.08205017447471619 -0.104446642100811 0.08681099861860275
0.02939586527645588 -0.09140262007713318 0.010676009580492973
0.028436053544282913 -0.08743095397949219 -0.15349212288856506
-0.1127634197473526 0.09222617000341415 -0.14514335989952087
-0.10906544327735901 0.00718582421541214 0.24506236612796783
-0.06893697381019592 0.07435724139213562 -0.273069828748703
0.2578624486923218 -0.0794413685798645 0.0826331302523613
0.00982172042131424 -0.016736242920160294 -0.016393914818763733
-0.11272160708904266 0.11106642335653305 -0.22076311707496643
-0.12727101147174835 0.012423159554600716 0.046552613377571106
-0.14461131393909454 0.09957166016101837 -0.008509575389325619
-0.029582791030406952 -0.010079252533614635 -0.18096967041492462
0.07668127864599228 -0.11321372538805008 0.3281717002391815
-0.10345124453306198 -0.0689425989985466 0.08250471949577332
-0.1275767982006073 -0.021573208272457123 -0.026068367063999176
-0.06771213561296463 0.09799423068761826 -0.05489951744675636
-0.05367492511868477 0.10897853970527649 0.076057568192482
0.11361772567033768 0.0379229336977005 -0.40705639123916626
-0.13307484984397888 0.08565110713243484 0.12854821979999542
-0.05006510019302368 -0.09529470652341843 -0.404765248298645
-0.046387504786252975 0.14578329026699066 -0.16948466002941132
-0.055740632116794586 -0.10114333778619766 -0.04775837063789368
-0.08863455057144165 -0.030843585729599 0.06414468586444855
-0.08334271609783173 -0.009689676575362682 -0.21646997332572937
-0.0005027055740356445 0.018424447625875473 0.224994495511055
-0.11976449936628342 -0.0915650799870491 0.10680307447910309
0.148557648062706 -0.07622408121824265 -0.030727144330739975
-0.11376695334911346 0.2656175494194031 0.2031097412109375
0.10322654992341995 -0.09966298937797546 -0.15959049761295319
-0.09438847750425339 0.022560689598321915 0.3346889615058899
-0.022086892277002335 -0.07847786694765091 -0.07072970271110535
-0.05346396937966347 0.08821117877960205 -0.12061849981546402
0.026558687910437584 -0.09955967217683792 -0.05429894104599953
-0.07916517555713654 0.1753246784210205 0.07693611830472946
0.16459406912326813 -0.03638631850481033 0.047124627977609634
-0.06814804673194885 -0.04513411223888397 0.027870506048202515
-0.09195469319820404 0.21923388540744781 -0.15467378497123718
-0.050350483506917953 -0.12753607332706451 -0.06560730189085007
-0.13694632053375244 -0.13048885762691498 -0.05982642620801926
-0.07478681206703186 0.03706936165690422 -0.06811057031154633
0.060501791536808014 -0.0961238294839859 -0.12104710191488266
-0.08629661798477173 0.03068375401198864 -0.134418785572052
-0.10813532024621964 0.02190983295440674 0.020817119628190994
-0.1070641353726387 -0.10688258707523346 0.06279481947422028
0.15501493215560913 -0.0607307143509388 0.03266635909676552
-0.12553240358829498 0.08605062961578369 -0.29824098944664
-0.05260962247848511 0.12293536961078644 -0.07908888161182404
-0.09215772151947021 0.09917277097702026 -0.02301168255507946
-0.10770514607429504 0.08395200967788696 0.11140334606170654
-0.0058252946473658085 -0.05414113402366638 0.04307403415441513
-0.05733232945203781 0.15321114659309387 -0.13940273225307465
0.0011302782222628593 -0.037225041538476944 -0.11653256416320801
0.03635445237159729 -0.057594723999500275 0.13879656791687012
-0.11027266085147858 -0.03561842814087868 0.2516123950481415
-0.03383692726492882 -0.13815392553806305 0.39426153898239136
-0.043606460094451904 0.0764516144990921 0.4411981999874115
-0.1033785492181778 -0.04736243188381195 0.06319227814674377
0.0070435358211398125 -0.07944976538419724 0.03846336528658867
0.14552895724773407 -0.08465711772441864 -0.005432718433439732
0.08528837561607361 -0.01669370010495186 -0.09283053874969482
0.01586327701807022 -0.12206977605819702 0.30985432863235474
-0.049009453505277634 0.045256152749061584 0.14016547799110413
-0.03053516149520874 -0.09113363921642303 -0.04922805726528168
0.13353395462036133 -0.06630787253379822 0.4576483368873596
-0.04852045327425003 -0.0624050498008728 -0.0031903591006994247
-0.07117070257663727 -0.08084630966186523 -0.13912475109100342
0.08668826520442963 -0.04247821122407913 0.17190836369991302
0.025603938847780228 0.14777061343193054 -0.40963348746299744
0.0788852646946907 -0.08455390483140945 0.05600564181804657
0.05247388407588005 -0.06537338346242905 0.08673033118247986
-0.08646295964717865 -0.08528811484575272 -0.044691845774650574
0.04159389063715935 -0.044151775538921356 -0.20289507508277893
0.1845322847366333 -0.09254974126815796 -0.14054830372333527
-0.04842478781938553 -0.07897371053695679 -0.29746636748313904
-0.0809478908777237 -0.05362936109304428 -0.008202111348509789
-0.022187456488609314 -0.07618514448404312 0.030981890857219696
-0.048614468425512314 -0.024290379136800766 -0.17248788475990295
-0.039014872163534164 -0.07751648128032684 -0.07217289507389069
-0.04312414303421974 -0.06815396249294281 -0.1284605711698532
-0.11422054469585419 -0.07332347333431244 0.4360780119895935
0.0010538063943386078 -0.13214196264743805 0.29214993119239807
-0.13270944356918335 0.1112908124923706 0.14010004699230194
0.023289890959858894 -0.0920647531747818 0.03890229016542435
-0.106109619140625 -0.05421729385852814 0.054723795503377914
0.1368035525083542 -0.09414248913526535 0.26337310671806335
-0.09020572155714035 -0.08293654024600983 0.07789909839630127
-0.05527609586715698 -0.09996207058429718 0.12914830446243286
-0.10343952476978302 -0.016077961772680283 0.06490953266620636
0.04106742888689041 -0.08011452108621597 0.03350535035133362
0.006353508681058884 -0.09854316711425781 -0.15463151037693024
-0.07316549122333527 -0.037778258323669434 0.32094746828079224
-0.11867601424455643 0.041367754340171814 -0.14530900120735168
0.06570266932249069 -0.07289278507232666 -0.030253037810325623
0.07050155848264694 -0.12913478910923004 -0.084939144551754
-0.12850186228752136 0.0742051973938942 -0.0879930779337883
0.11934766918420792 -0.04219003766775131 0.03474541753530502
0.036788444966077805 -0.16520720720291138 0.04518226534128189
0.049694254994392395 -0.09955886751413345 -0.04858250170946121
-0.04285912215709686 0.01574423536658287 -0.1688394397497177
0.11455702036619186 -0.09321962296962738 0.39158791303634644
0.12378378212451935 -0.10378603637218475 0.07181821763515472
-0.008094064891338348 -0.07057052850723267 0.04026459529995918
-0.03224969655275345 -0.06193355470895767 -0.07450467348098755
-0.07508193701505661 -0.06118343770503998 -0.21660950779914856
0.12817126512527466 -0.04374566301703453 0.1014811247587204
0.15775294601917267 -0.07800991088151932 -0.053629837930202484
-0.1531568467617035 -0.00220690481364727 0.027248559519648552
-0.06981056928634644 0.05133296549320221 -0.1972661316394806
-0.04099929332733154 0.17149704694747925 0.224910706281662
-0.0710482969880104 -0.004496803507208824 -0.002116464078426361
-0.0859384685754776 0.056636884808540344 0.23607036471366882
-0.02290506288409233 -0.14274033904075623 0.13936638832092285
0.02470124326646328 -0.09033884108066559 0.021970055997371674
-0.15298262238502502 -0.013080321252346039 0.09161075949668884
0.1346311718225479 -0.08259354531764984 0.3383166193962097
-0.08627086132764816 -0.022283967584371567 0.38254669308662415
-0.11730137467384338 -0.05333535373210907 0.28198304772377014
0.16338275372982025 -0.03109186887741089 0.029383957386016846
-0.074030801653862 0.04434826597571373 0.06622229516506195
0.054504916071891785 -0.06376862525939941 -0.04571441560983658
0.12283200770616531 -0.047797173261642456 -0.052821964025497437
0.06717848777770996 -0.11841040104627609 -0.37821492552757263
-0.12662628293037415 0.12388350069522858 0.009167034178972244
-0.07931177318096161 0.11426087468862534 0.08106760680675507
-0.008345641195774078 -0.08118586987257004 0.15027381479740143
-0.11277429759502411 0.11971260607242584 0.1217934787273407
-0.1322004199028015 -0.0019560828804969788 0.09917586296796799
-0.05273053050041199 -0.06309792399406433 -0.04705118387937546
0.022917568683624268 -0.06776690483093262 -0.07357817888259888
-0.12323139607906342 0.09032431989908218 -0.027664359658956528
-0.04757709801197052 0.08965390920639038 -0.13721758127212524
0.04751857370138168 -0.09455955028533936 0.007527288049459457
-0.09157925844192505 -0.00600607693195343 -0.05113579332828522
0.090366430580616 -0.08565076440572739 0.08852949738502502
0.08699248731136322 -0.08489014953374863 -0.03843175619840622
-0.04312987998127937 -0.10799715667963028 -0.242756649851799
0.3798850178718567 0.050563931465148926 0.024023516103625298
0.013212640769779682 -0.09966862201690674 0.09379760921001434
-0.09072044491767883 0.2487829029560089 0.11915307492017746
-0.007187895476818085 -0.07559672743082047 -0.21902380883693695
-0.10508344322443008 -0.030376935377717018 -0.12113592028617859
-0.0016853958368301392 -0.12064038217067719 0.16483405232429504
-0.10980360209941864 -0.03676680475473404 0.10498671233654022
-0.11433039605617523 -0.08518925309181213 0.2664664387702942
0.03237573057413101 -0.12195944786071777 -0.21449396014213562
0.07026104629039764 -0.1098443865776062 0.1683446764945984
-0.011562127619981766 0.043691977858543396 -0.26186391711235046
0.05194045975804329 -0.1311231255531311 -0.056570567190647125
-0.12865586578845978 0.048352278769016266 0.26923683285713196
0.004745085723698139 0.06918638944625854 -0.05737663060426712
-0.10738960653543472 0.1201399639248848 0.1395217329263687
-0.11074814200401306 -0.010155005380511284 0.08482345938682556
-0.11802822351455688 0.1522308588027954 0.47056594491004944
-0.06832272559404373 0.08431407064199448 -0.18643635511398315
0.08442821353673935 -0.13106991350650787 -0.0124579519033432
-0.09299042075872421 0.13220129907131195 0.07342128455638885
-0.08271227031946182 -0.024879321455955505 -0.01585320383310318
0.07727177441120148 -0.07649117708206177 0.15791095793247223
-0.07045960426330566 -0.09499205648899078 0.10419541597366333
-0.10702891647815704 0.02319076843559742 0.22976697981357574
-0.10273802280426025 -0.08890682458877563 -0.0355796217918396
0.18522803485393524 -0.08391588926315308 0.22545748949050903
