-0.08848655223846436 0.016072584316134453 -0.2112126350402832
0.018656328320503235 -0.09548147022724152 0.14049553871154785
-0.0315810889005661 0.08291260898113251 -0.25724056363105774
-0.11247188597917557 -0.018285494297742844 0.07567375153303146
-0.11689683794975281 0.006664970889687538 0.005829839035868645
-0.09319305419921875 0.08808860182762146 -0.014492266811430454
0.013868896290659904 -0.09762489795684814 -0.01842285506427288
-0.10639171302318573 0.023406371474266052 -0.13694335520267487
-0.13526560366153717 0.04451526328921318 0.3250070810317993
0.06762783974409103 -0.03342954069375992 -0.3485960364341736
0.011659972369670868 -0.09300300478935242 0.25543519854545593
-0.11680755019187927 0.023505473509430885 0.08121568709611893
-0.09480957686901093 0.08771784603595734 0.000944097526371479
0.037495195865631104 -0.0906105786561966 0.020114952698349953
-0.10507653653621674 0.07851721346378326 -0.0430462583899498
-0.08295334875583649 0.10058656334877014 -0.06971489638090134
-0.11638818681240082 0.00569944828748703 0.004729247186332941
0.013748624362051487 -0.08584862947463989 -0.16792696714401245
-0.04974009841680527 -0.08935247361660004 0.0879218578338623
-0.11634568870067596 0.005959340371191502 0.031970880925655365
0.07155764102935791 -0.0840267464518547 -0.050562575459480286
-0.11217683553695679 0.10882575809955597 0.36183619499206543
0.002538657747209072 -0.094538614153862 0.2301589548587799
-0.04986405372619629 -0.061373066157102585 -0.1963830441236496
-0.11598388850688934 0.03213836997747421 0.08943193405866623
-0.034478385001420975 -0.0929180234670639 0.1935727298259735
0.09916150569915771 -0.05437035858631134 -0.11835817992687225
-0.013670703396201134 -0.09748844802379608 0.11019428074359894
0.08573350310325623 -0.06938562542200089 -0.11891435086727142
0.03079838491976261 -0.06318902224302292 -0.27404919266700745
0.07203312963247299 -0.07922232151031494 -0.12823839485645294
-0.029529059305787086 0.018534105271100998 -0.3884936571121216
0.05911169573664665 -0.0717504546046257 0.24526554346084595
-0.11600407212972641 0.07920962572097778 0.23931065201759338
-0.10572059452533722 -0.04659005254507065 0.0038540468085557222
0.07564302533864975 -0.08438147604465485 -0.10588676482439041
-0.12478206306695938 0.05041279271245003 0.23814727365970612
-0.10802020132541656 0.08126646280288696 0.1630864292383194
0.08057885617017746 -0.05759269744157791 0.2628680169582367
0.0717708021402359 -0.07736395299434662 0.010858564637601376
0.06894637644290924 -0.06885756552219391 0.3235906958580017
-0.07910147309303284 0.020423177629709244 -0.23183917999267578
-0.1114741712808609 -0.020047584548592567 -0.04630519822239876
0.05271352082490921 -0.08423036336898804 -0.1328645944595337
-0.06208093836903572 0.13170044124126434 0.11485576629638672
-0.11279019713401794 -0.020367519930005074 0.07523027807474136
-0.08378006517887115 0.10549698770046234 0.05853034555912018
-0.1144566684961319 -0.019538601860404015 0.07685770839452744
-0.00026936596259474754 -0.09355097264051437 0.19788339734077454
-0.11745280027389526 0.022887634113430977 0.08145773410797119
-0.1119929626584053 -0.019459102302789688 0.05076250806450844
-0.004173873923718929 -0.09997987747192383 -0.05145417898893356
0.01597904972732067 -0.09739737957715988 -0.07037561386823654
0.08449238538742065 -0.07075884193181992 -0.040851205587387085
0.1038501039147377 -0.026679635047912598 0.31648969650268555
-0.04718945920467377 -0.06578022986650467 -0.1673632562160492
0.07823579013347626 -0.06646127998828888 0.04730881750583649
-0.11407008022069931 0.04951445013284683 0.03301694616675377
0.046784430742263794 -0.09253844618797302 -0.02999909594655037
0.05975447595119476 -0.09021985530853271 -0.057313352823257446
-0.08756943792104721 -0.06279152631759644 0.09303131699562073
0.012369398958981037 -0.09800253808498383 -0.018837273120880127
-0.06545764952898026 0.1285698413848877 0.10174455493688583
-0.09031708538532257 0.09077741205692291 0.025101689621806145
-0.11627041548490524 0.021536875516176224 0.08080939948558807
-0.046363912522792816 0.017669562250375748 -0.33327579498291016
-0.07748457789421082 0.10360674560070038 -0.04333987087011337
0.11782234907150269 -0.045320361852645874 -0.04446995258331299
0.04221848398447037 -0.09484048187732697 -0.04067670926451683
0.11081304401159286 -0.048716478049755096 -0.005012433044612408
0.11978266388177872 -0.01431905385106802 0.04784364625811577
-0.1297391951084137 0.014322701841592789 0.28444749116897583
-0.1164257824420929 0.0603579506278038 0.16933020949363708
0.13243630528450012 -0.016794512048363686 -0.14767149090766907
-0.01322290301322937 -0.097490094602108 0.11083101481199265
-0.024541271850466728 0.10348973423242569 -0.20144867897033691
-0.036190927028656006 -0.05761783942580223 -0.21747133135795593
-0.08817881345748901 -0.0016041779890656471 -0.19704246520996094
-0.10718940198421478 0.021022148430347443 -0.13530437648296356
0.024131113663315773 -0.0929972231388092 0.028309617191553116
0.025455433875322342 -0.08597968518733978 0.20473551750183105
0.09018438309431076 -0.060656387358903885 0.04829707741737366
-0.07300379127264023 0.04110022261738777 -0.2344723492860794
0.12192068248987198 -0.029215767979621887 0.0012925341725349426
-0.13781476020812988 -0.030481524765491486 0.3984869420528412
0.043064672499895096 -0.09641867876052856 -0.042320460081100464
0.09040573239326477 -0.06342048197984695 0.06228119879961014
0.021578047424554825 -0.08714135736227036 -0.12819527089595795
0.09259668737649918 0.007599931210279465 -0.5079238414764404
0.09601196646690369 -0.05805651843547821 0.021011924371123314
-0.0031294552609324455 -0.09902504086494446 -0.04765434190630913
0.12312798202037811 -0.03686104714870453 -0.0766584575176239
0.07058640569448471 -0.06907232850790024 0.15305013954639435
-0.050406262278556824 -0.060357674956321716 -0.1984204351902008
-0.0896393358707428 -0.05668376758694649 -0.05762796849012375
0.03030804730951786 -0.09217579662799835 0.04169579595327377
-0.02511478215456009 -0.10095210373401642 -0.06322324275970459
-0.050515417009592056 0.050531625747680664 -0.26765337586402893
0.03380126506090164 -0.08849839866161346 0.06673949956893921
0.021276099607348442 -0.09548553079366684 0.10199134051799774
0.042333636432886124 -0.0900736004114151 0.014697684906423092
-0.11251626908779144 0.09106672555208206 0.26665443181991577
0.05571936443448067 -0.07910087704658508 0.10364988446235657
0.06583653390407562 -0.07985011488199234 0.06511002033948898
0.006294159218668938 -0.10016663372516632 -0.11138097941875458
0.08194859325885773 -0.06958195567131042 0.05326273292303085
-0.06766127794981003 0.12236254662275314 0.07077203691005707
-0.1392105519771576 0.051815178245306015 0.35858362913131714
0.022376276552677155 -0.09067575633525848 0.06883864849805832
0.06805546581745148 -0.08146999776363373 -0.003531916067004204
-0.12795789539813995 -0.023315254598855972 0.33993643522262573
-0.10963457822799683 0.057407259941101074 0.08296415209770203
-0.0534248985350132 0.050345439463853836 -0.25354576110839844
0.04698862507939339 -0.08638668805360794 -0.11880747973918915
-0.11027222126722336 -0.03137596324086189 0.09622109681367874
-0.0722787007689476 0.016955992206931114 -0.2592194676399231
-0.10946724563837051 0.07031935453414917 -0.03818238526582718
-0.023857619613409042 -0.09991979598999023 0.031112562865018845
0.03628765791654587 -0.08888673782348633 0.006792193744331598
0.09968706220388412 -0.05831470340490341 -0.06592544168233871
-0.07632768154144287 0.13574613630771637 0.1669510453939438
-0.03438519313931465 -0.07430712878704071 -0.1769777536392212
0.10517306625843048 -0.056537892669439316 -0.00026960670948028564
-0.1105000227689743 0.06528845429420471 -0.041899897158145905
-0.05278858542442322 0.141164168715477 0.19561947882175446
0.08412400633096695 -0.07188908010721207 -0.041694965213537216
-0.08066019415855408 -0.06565307080745697 0.046408094465732574
-0.005476448684930801 0.03640810027718544 -0.4823956787586212
-0.061780285090208054 -0.0820140540599823 0.2547478675842285
0.016366371884942055 -0.09903301298618317 -0.0720766931772232
-0.05082970857620239 -0.08636806905269623 0.11438879370689392
0.11808454990386963 -0.04033495485782623 -0.13986393809318542
0.011358357965946198 -0.07679366320371628 -0.23736444115638733
0.01770038716495037 -0.09995242953300476 0.09653864800930023
0.0883912444114685 -0.06311513483524323 0.10364192724227905
-0.06561136245727539 0.14829190075397491 0.27740100026130676
0.08294112980365753 -0.06649068742990494 0.0689224898815155
-0.01935466192662716 -0.10153108835220337 0.41519245505332947
-0.11928395181894302 0.03267287462949753 0.12272557616233826
0.026248980313539505 -0.08119099587202072 -0.18290957808494568
-0.11688652634620667 0.02075124904513359 0.08047710359096527
0.03696900233626366 0.044470544904470444 -0.5412296056747437
-0.08906834572553635 -0.058354053646326065 -0.05826614424586296
-0.11224640905857086 0.017777828499674797 -0.09324021637439728
-0.08095581829547882 0.10790020227432251 0.06104664504528046
0.046133510768413544 -0.09148359298706055 -0.008916429243981838
-0.11380279064178467 0.046744514256715775 0.007029852829873562
-0.014266086742281914 -0.09597129374742508 0.10976740717887878
-0.11455560475587845 0.04753250628709793 0.007086257915943861
-0.06221757084131241 -0.07494278252124786 -0.06631039083003998
0.012251336127519608 0.06733766198158264 -0.4188534915447235
0.048498038202524185 -0.08769981563091278 0.03105437383055687
0.04188280552625656 -0.09670683741569519 -0.04230537638068199
0.06987658143043518 -0.08234508335590363 -0.003250368172302842
-0.11394020915031433 -0.04403337836265564 0.19388256967067719
0.06889630854129791 -0.06878568977117538 0.15196523070335388
0.024457445368170738 -0.09317484498023987 0.3643936514854431
0.0563959926366806 -0.08753057569265366 -0.015531723387539387
-0.056892357766628265 -0.05598041042685509 -0.24015295505523682
0.12096680700778961 -0.022726744413375854 -0.17192621529102325
0.054324232041835785 -0.08552166074514389 0.07419207692146301
0.053091779351234436 -0.07772763818502426 0.32416585087776184
0.06793338805437088 -0.06769584864377975 -0.21845632791519165
0.09963211417198181 -0.061493273824453354 -0.05190421640872955
0.11146427690982819 -0.037289127707481384 0.03884897381067276
0.0197734571993351 -0.09099192917346954 0.3530210256576538
0.07736188173294067 -0.0680140033364296 0.10785284638404846
-0.041793666779994965 0.09498200565576553 -0.21519801020622253
-0.07538304477930069 0.07359794527292252 -0.15246911346912384
0.09971742331981659 -0.046039093285799026 0.10677991807460785
0.13075123727321625 -0.027219844982028008 -0.059607844799757004
0.07453739643096924 -0.06173747405409813 0.38138946890830994
0.03821098431944847 -0.09242621809244156 0.01743832789361477
-0.12865102291107178 0.034842804074287415 0.2586618661880493
-0.07638724148273468 0.06749090552330017 -0.16156312823295593
-0.08189798891544342 0.10015768557786942 0.02512483298778534
0.03048841282725334 -0.0908433198928833 0.15888801217079163
-0.11833345890045166 0.007282043807208538 0.004049957729876041
0.05809570848941803 -0.07494577765464783 0.1435401886701584
0.12294723093509674 -0.03021429106593132 0.0005678290035575628
-0.13201025128364563 0.07337500154972076 0.34072980284690857
-0.10348581522703171 0.0771220326423645 0.09994389116764069
0.049838751554489136 -0.09316039085388184 -0.027933696284890175
-0.04220545291900635 -0.08818066120147705 0.13609200716018677
0.04503581300377846 -0.08998169749975204 -0.008654838427901268
0.09125372022390366 -0.03830241411924362 -0.20476087927818298
0.0445941686630249 -0.08539142459630966 -0.0999329537153244
0.01795235276222229 0.07399148494005203 -0.3639523983001709
0.10396388173103333 -0.035670243203639984 0.20250283181667328
-0.04444121569395065 -0.09195803850889206 0.3491046726703644
0.009705513715744019 -0.06956604868173599 -0.27146250009536743
-0.060531117022037506 -0.07337670773267746 -0.12189310789108276
0.08893696218729019 0.010474419221282005 -0.42469680309295654
-0.0031778868287801743 -0.09648425877094269 -0.13329200446605682
-0.0941738709807396 0.05806662142276764 -0.1380135416984558
-0.023022029548883438 -0.09759606420993805 -0.1164296418428421
-0.101993128657341 -0.010573185048997402 -0.1337805986404419
-0.03073093295097351 -0.09843763709068298 0.037052370607852936
-0.06262867152690887 -0.08942216634750366 0.3767215609550476
-0.12367236614227295 0.08313114941120148 0.3325966000556946
0.08154679834842682 -0.05948736146092415 0.22980694472789764
-0.08683156967163086 0.11177601665258408 0.12969127297401428
-0.05483917146921158 0.14189867675304413 0.1750144064426422
-0.046886466443538666 -0.08906157314777374 0.08526626229286194
-0.09884604811668396 0.03429434075951576 -0.16947150230407715
-0.0076927850022912025 -0.09968908131122589 0.018901165574789047
-0.07657208293676376 -0.06266894936561584 -0.08276785165071487
-0.12056361138820648 0.0707651823759079 0.2463279664516449
-0.0659954696893692 -0.07897510379552841 0.02387126162648201
-0.11538709700107574 0.02124800719320774 -0.008453210815787315
0.03975985199213028 -0.09330420196056366 -0.028560232371091843
-0.061843141913414 0.1271612048149109 0.09033360332250595
0.12715132534503937 -0.032730862498283386 -0.08094623684883118
0.0499224029481411 -0.062004122883081436 -0.22760158777236938
0.11279557645320892 -0.048671409487724304 -0.0063188280910253525
0.0439847856760025 -0.09439762681722641 -0.042523130774497986
-0.02862677164375782 0.07616458833217621 -0.28520625829696655
-0.10612596571445465 0.10838282108306885 0.2392367422580719
0.01473166886717081 -0.08715972304344177 -0.13360702991485596
-0.08121126890182495 0.10064752399921417 0.01853068917989731
-0.053839754313230515 0.09301445633172989 -0.2011524736881256
0.10399460792541504 -0.04736049473285675 0.031137894839048386
0.019058411940932274 -0.09363523125648499 0.035549018532037735
-0.1170777678489685 0.006544687319546938 0.003916003741323948
-0.1165391281247139 0.005042772274464369 0.0055250078439712524
-0.09934592247009277 0.08203152567148209 -0.0564393512904644
0.07378998398780823 -0.06919707357883453 -0.1706506311893463
-0.11453749239444733 0.001647617551498115 -0.05667063593864441
-0.11630942672491074 -0.003954759798943996 -0.002898723352700472
0.006853779777884483 -0.09232914447784424 0.06706596910953522
0.025730207562446594 -0.007704397663474083 -0.5548429489135742
-0.06656758487224579 0.1250419169664383 0.08950237929821014
-0.11971434950828552 0.07695092260837555 0.22797664999961853
-0.11786075681447983 0.02296525426208973 0.08200828731060028
-0.011062687262892723 -0.07372274994850159 -0.2188471257686615
-0.0729604959487915 0.10752426087856293 -0.07960665225982666
0.04810526967048645 -0.09386343508958817 -0.03104957565665245
-0.07117297500371933 0.125910222530365 0.13303184509277344
-0.046053387224674225 0.13972865045070648 0.13069981336593628
-0.08889608830213547 0.11491777002811432 0.1327834576368332
-0.01631457731127739 -0.09792433679103851 0.020506544038653374
0.0222143717110157 -0.08953110873699188 0.04997234791517258
-0.05947249010205269 -0.08697814494371414 0.2815529704093933
0.05942234396934509 -0.08868727087974548 -0.05466103553771973
0.07250078022480011 -0.07648031413555145 0.01146373525261879
-0.08516962826251984 0.09877762198448181 -0.021582141518592834
-0.10637785494327545 0.08552002906799316 0.14184120297431946
-0.07517589628696442 -0.07171014696359634 -0.030194830149412155
-0.11087092757225037 -0.034559961408376694 0.10413219034671783
-0.1060924082994461 0.1079009473323822 0.23926028609275818
0.0700337141752243 -0.07001350820064545 0.15177789330482483
-0.10600640624761581 -0.047880060970783234 0.0055420976132154465
-0.06826405972242355 -0.04627828299999237 -0.22745218873023987
0.024276109412312508 -0.09371087700128555 0.028584135696291924
0.023456789553165436 -0.090919628739357 0.03615238890051842
0.030241047963500023 -0.07268267869949341 -0.207907035946846
0.06313342601060867 -0.07153309136629105 0.3549320697784424
-0.10589566081762314 0.05463438481092453 -0.09856416285037994
0.07009492814540863 -0.029903603717684746 -0.44416725635528564
-0.02262195758521557 -0.09959903359413147 0.29259973764419556
0.018509317189455032 -0.097525455057621 -0.07332875579595566
-0.047662872821092606 -0.09548543393611908 0.405564546585083
-0.11309483647346497 -0.020773278549313545 0.052978143095970154
0.11110828816890717 -0.018561571836471558 0.19220367074012756
0.10251504182815552 -0.056633949279785156 0.0012126490473747253
-0.04865903779864311 0.1264210343360901 -0.047944433987140656
0.11467296630144119 -0.021524760872125626 0.10179798305034637
-0.08192203938961029 0.1062440276145935 0.059933148324489594
-0.11789564043283463 0.03332987800240517 0.088748037815094
-0.0637955516576767 0.11586026847362518 -0.08516886830329895
-0.04312721639871597 -0.09011349081993103 0.1349559873342514
-0.1162358969449997 0.00585976243019104 0.03106953389942646
0.049484968185424805 -0.09453742206096649 -0.02981855347752571
0.047683604061603546 -0.08724257349967957 0.04208499938249588
0.02243231050670147 -0.09134569764137268 0.04899781197309494
0.018514476716518402 -0.100558802485466 0.09290673583745956
-0.06287040561437607 0.11939333379268646 0.0487770177423954
-0.11726382374763489 0.02300504967570305 0.07839777320623398
-0.10720205307006836 0.007099239155650139 -0.1298760622739792
-0.11370678246021271 0.048737965524196625 0.008234848268330097
-0.04618973284959793 -0.089373379945755 0.08491699397563934
-0.11548013985157013 0.007039832882583141 0.004695851821452379
0.05816777050495148 -0.09381206333637238 -0.0770668312907219
-0.11675836145877838 0.02369965799152851 0.08293101191520691
0.041889701038599014 -0.09240470826625824 -0.027988575398921967
0.09596887975931168 -0.05816017836332321 0.01862713322043419
-0.07139278203248978 0.10803364217281342 -0.05614645779132843
-0.11324062943458557 -0.01836453564465046 0.05101284757256508
-0.09272125363349915 -0.06005040556192398 0.17096257209777832
-0.06942067295312881 0.11087517440319061 0.03202085196971893
0.004476544912904501 -0.09978370368480682 -0.11105047911405563
-0.06549022346735 0.03141605481505394 -0.2645770311355591
0.06554455310106277 -0.07979313284158707 0.06668925285339355
0.07273363322019577 -0.0895080491900444 -0.09702043980360031
-0.035620760172605515 0.1177765280008316 -0.13645179569721222
-0.08686305582523346 0.12310176342725754 0.19403861463069916
-0.11268946528434753 0.06474290043115616 -0.040736421942710876
-0.10046984255313873 0.08426974713802338 0.09270935505628586
0.03647452965378761 -0.05254482105374336 -0.2986043691635132
-0.11295720189809799 0.04784678295254707 0.00818280316889286
0.014158211648464203 -0.097294881939888 -0.018872704356908798
-0.1160830408334732 0.05516895279288292 0.15060588717460632
-0.08537378162145615 0.10413865745067596 0.08414839208126068
0.044269561767578125 -0.08778440207242966 0.013240847736597061
0.047685615718364716 -0.08246447890996933 -0.1177615076303482
-0.11568719893693924 0.006517093628644943 0.031287334859371185
-0.042987626045942307 -0.08922567963600159 0.1336633712053299
-0.054970093071460724 0.11861695349216461 -0.10732844471931458
-0.11397974193096161 -0.019790038466453552 0.049422089010477066
-0.1163318008184433 0.0068901232443749905 0.029693296179175377
-0.11797729134559631 0.032779447734355927 0.0909230038523674
-0.11287960410118103 -0.020125314593315125 0.04866892099380493
-0.11100897192955017 -0.018859729170799255 0.0508481003344059
-0.029277820140123367 0.033425766974687576 -0.3631094694137573
0.0031591239385306835 -0.09004506468772888 -0.19731444120407104
-0.08950377255678177 0.09041376411914825 -0.06267218291759491
0.09382770955562592 -0.05468224734067917 0.07102524489164352
-0.11612403392791748 -0.01942208595573902 0.15366555750370026
0.04038828983902931 -0.03303872048854828 -0.5151718854904175
-0.08527246117591858 -0.06513428688049316 0.06307528913021088
-0.0998602882027626 0.08330827206373215 0.08755958080291748
-0.11757540702819824 0.03404272347688675 0.09069837629795074
0.08407627046108246 -0.052178218960762024 0.350079208612442
-0.0462997667491436 -0.09192592650651932 0.08608858287334442
-0.04744625464081764 0.10512499511241913 -0.16872121393680573
0.055880144238471985 -0.08708077669143677 -0.015066273510456085
0.08821144700050354 -0.05316426232457161 0.22540315985679626
0.03325718641281128 -0.08628206700086594 0.2074175477027893
0.11274999380111694 -0.0485449954867363 0.0021895100362598896
0.05154126137495041 -0.08304530382156372 0.07508047670125961
0.0574151873588562 -0.08541218936443329 -0.01802731677889824
0.10262391716241837 -0.05671989172697067 0.0006204405799508095
-0.0934562236070633 0.06423474848270416 -0.13238564133644104
-0.07518989592790604 0.1155836284160614 0.06462273746728897
-0.0820690393447876 0.09889013320207596 0.024467401206493378
-0.04663647711277008 0.12929831445217133 -0.05867505818605423
-0.11813486367464066 0.03264617174863815 0.09104711562395096
-0.08507151901721954 0.11604370921850204 0.14323492348194122
0.10373661667108536 -0.05671144276857376 0.0003646514378488064
-0.0854688286781311 -0.08301418274641037 0.40821152925491333
0.04044526070356369 -0.09141656756401062 -0.028536148369312286
-0.11342296004295349 0.04938077926635742 0.026320049539208412
-0.11528359353542328 0.07770325988531113 0.20763182640075684
-0.09609197080135345 0.05026217922568321 -0.14188072085380554
-0.008791828528046608 -0.09643791615962982 0.24433201551437378
-0.1110503226518631 0.048064954578876495 0.028128083795309067
-0.10789473354816437 0.09816008806228638 0.30115601420402527
0.0478111207485199 -0.08378631621599197 -0.11677688360214233
0.020541328936815262 -0.09389609098434448 0.13684020936489105
0.05974941700696945 -0.08619214594364166 -0.02298135682940483
0.05891060084104538 -0.08654585480690002 -0.0225641168653965
-0.08850432187318802 -0.062435608357191086 0.0912594422698021
0.025765221565961838 -0.09597989916801453 0.01570862904191017
-0.09307883679866791 0.04199405759572983 -0.19682475924491882
-0.12482177466154099 0.047157831490039825 0.2057322859764099
-0.11464102566242218 0.054274361580610275 0.11997434496879578
-0.11052931845188141 0.07382669299840927 0.1725301444530487
-0.008405783213675022 -0.10101181268692017 0.01942126825451851
-0.08104808628559113 0.10610069334506989 -0.05911056697368622
-0.07569257915019989 -0.07182614505290985 0.023971334099769592
-0.10281762480735779 0.07008731365203857 -0.07259025424718857
-0.12116467952728271 0.019419200718402863 0.16816657781600952
-0.07039175927639008 0.15313401818275452 0.31508082151412964
-0.07649590075016022 -0.061738207936286926 -0.08204028010368347
-0.09495329111814499 0.08737380802631378 5.15286810696125e-05
0.07269369065761566 -0.07727495580911636 -0.15861260890960693
-0.02284354716539383 -0.037562645971775055 -0.335061252117157
-0.09309937059879303 0.08903348445892334 0.05155951529741287
-0.05577976256608963 -0.08575300127267838 0.20025527477264404
-0.015724636614322662 -0.0969126969575882 0.1095987856388092
0.041744351387023926 -0.09519057720899582 -0.043693818151950836
-0.0869370773434639 0.09815991669893265 0.01747998408973217
0.07298674434423447 -0.08470602333545685 -0.1037246435880661
-0.056464530527591705 0.10737165808677673 -0.15556326508522034
-0.09396587312221527 0.1336645781993866 0.33722007274627686
0.03980322927236557 -0.08648091554641724 0.03435204550623894
-0.0714656412601471 0.11789228022098541 -0.016287613660097122
0.01715623214840889 -0.09726334363222122 -0.07223739475011826
0.04036831855773926 -0.09326042979955673 -0.02991318702697754
0.06045243889093399 -0.09025797992944717 -0.06952598690986633
0.10381393134593964 -0.05890806019306183 -0.03326993063092232
0.09844440966844559 -0.05338873714208603 0.06321694701910019
0.06140807271003723 -0.09031742066144943 -0.07117601484060287
-0.11725594103336334 0.022864097729325294 0.0820160061120987
0.09885309636592865 -0.056572046130895615 -0.11659859120845795
-0.11881684511899948 0.033792201429605484 0.122648686170578
0.08793844282627106 -0.061639536172151566 0.10228267312049866
-0.10432926565408707 -0.009511181153357029 -0.13505412638187408
-0.1102331280708313 0.05664113163948059 0.08266964554786682
-0.1019066870212555 0.10155326128005981 0.2052779644727707
0.08735686540603638 -0.07106603682041168 -0.11908941715955734
-0.08470239490270615 0.0987870842218399 -0.01959606632590294
0.024086125195026398 -0.09129679948091507 0.3174852430820465
-0.04045996069908142 -0.09203144162893295 0.22422447800636292
-0.1142030656337738 0.02108195424079895 -0.007815745659172535
0.04908520728349686 -0.08763985335826874 0.013537892140448093
-0.0018253270536661148 -0.04491247236728668 -0.3520561158657074
0.10432644933462143 -0.056600719690322876 -0.0013208631426095963
0.12208360433578491 -0.04011450335383415 -0.057714030146598816
-0.07998385280370712 -0.04335610941052437 -0.20304763317108154
-0.08080456405878067 -0.047231316566467285 -0.20078346133232117
-0.1035526841878891 0.07596345245838165 0.03835345432162285
-0.09767785668373108 0.10059108585119247 0.12456139177083969
-0.0515260174870491 -0.05326575040817261 -0.23908275365829468
0.06148313730955124 -0.08111365884542465 -0.1239088922739029
0.03349866718053818 -0.09064748883247375 0.11636537313461304
0.11259087920188904 -0.04859381914138794 -0.003724074922502041
-0.10339412093162537 0.11919474601745605 0.32223987579345703
0.05366130545735359 -0.08343907445669174 -0.13071990013122559
0.02116493508219719 -0.09046335518360138 0.28882670402526855
0.0844869539141655 -0.0660819560289383 0.041077613830566406
-0.00566757470369339 0.07672309130430222 -0.32103297114372253
0.03749414160847664 -0.08868193626403809 0.007456444203853607
0.05916125327348709 -0.08588659018278122 -0.023612573742866516
0.04270612448453903 -0.09485079348087311 -0.04410179704427719
-0.0510437898337841 -0.08689874410629272 -0.04955168068408966
-0.08079878985881805 -0.04649803787469864 -0.19938814640045166
-0.10103946924209595 0.0811910629272461 0.08502098172903061
0.017562642693519592 -0.09603330492973328 -0.07250802963972092
-0.09914276003837585 0.07742428779602051 0.015028778463602066
-0.11741641163825989 0.021378766745328903 -0.0076524484902620316
0.04313196614384651 -0.08270193636417389 0.2649158835411072
0.11152313649654388 -0.047415975481271744 0.002982292789965868
-0.014444686472415924 -0.09918896853923798 0.019519640132784843
0.03988511860370636 -0.09425073862075806 -0.027803748846054077
-0.05719726160168648 -0.06126602366566658 -0.18728718161582947
0.09489385783672333 -0.04417166858911514 0.23542267084121704
0.04663292318582535 -0.09134060144424438 -0.009344459511339664
0.06923424452543259 -0.08799153566360474 -0.07842359691858292
-0.11320730298757553 0.04505348578095436 0.009380336850881577
0.11273760348558426 -0.02758033573627472 -0.1993701457977295
0.005160754080861807 -0.09738393872976303 -0.10852792114019394
0.09682652354240417 -0.059349991381168365 0.022047435864806175
0.025050856173038483 -0.0945412814617157 0.013588959351181984
-0.08970200270414352 0.09002508968114853 0.02597220614552498
0.046287208795547485 -0.08988696336746216 0.10008524358272552
-0.11752992868423462 0.023307641968131065 0.08204953372478485
-0.0921141505241394 0.09045092761516571 0.04375094175338745
-0.11434536427259445 0.021019935607910156 -0.10662198066711426
-0.07365246117115021 0.13351652026176453 0.1662796139717102
-0.08427886664867401 -0.07964009046554565 0.36526235938072205
-0.11533698439598083 0.02171621285378933 -0.009715380147099495
-0.11328203976154327 0.04678932577371597 0.0072970460169017315
-0.0396779365837574 0.10077805072069168 -0.1902148425579071
0.012041043490171432 -0.09874314069747925 -0.018641704693436623
-0.07950334250926971 0.13993535935878754 0.3033832311630249
-0.11507172882556915 0.048699915409088135 0.025840718299150467
-0.11719567328691483 0.05606674402952194 0.15411125123500824
-0.007921498268842697 0.06183401867747307 -0.37383705377578735
-0.0823063850402832 0.10115975886583328 0.056263722479343414
0.11356672644615173 -0.029473572969436646 0.05705178156495094
0.09947272390127182 -0.04619905352592468 0.10802337527275085
0.0615534707903862 -0.08852830529212952 -0.07081463932991028
-0.11731107532978058 0.0320136696100235 0.09005215764045715
-0.0037414971739053726 -0.06128932535648346 -0.2821286916732788
0.10095876455307007 -0.05446366220712662 -0.07033370435237885
0.06722680479288101 -0.08194127678871155 -0.0013725863536819816
-0.11479826271533966 0.021130820736289024 -0.008844157680869102
0.08701971173286438 -0.03983414173126221 -0.24229779839515686
0.04651748389005661 -0.09336195886135101 -0.00971995573490858
0.04508969187736511 -0.08758853375911713 0.012357198633253574
0.046394120901823044 -0.0888121947646141 -0.06678928434848785
0.11247967928647995 -0.04921147972345352 0.0017337454482913017
-0.023184914141893387 -0.09818105399608612 -0.11812757700681686
-0.11420342326164246 0.08340460807085037 0.18739914894104004
-0.10678541660308838 0.02228076197206974 -0.13402199745178223
0.11299367249011993 -0.04904816672205925 -0.004763578996062279
0.10615858435630798 -0.024683699011802673 0.2725851535797119
0.016254745423793793 -0.09685683995485306 -0.019121849909424782
-0.11494985222816467 0.02128954790532589 -0.0018772687762975693
-0.08751948177814484 0.09683285653591156 -0.007915414869785309
-0.13138306140899658 -0.028899913653731346 0.3623966872692108
-0.11275455355644226 -0.02032455801963806 0.04830826818943024
-0.10575494170188904 0.07613928616046906 0.10292530059814453
0.04382879287004471 -0.08766867965459824 0.01248007919639349
-0.09317255020141602 -0.05744127184152603 0.17136716842651367
0.048018936067819595 -0.08501459658145905 0.013114385306835175
0.11283988505601883 -0.04925531893968582 -0.0060129314661026
-0.06560009717941284 -0.08074336498975754 0.18466998636722565
-0.1270325481891632 0.06515296548604965 0.2940931022167206
0.03643709421157837 -0.09154509007930756 0.0666627436876297
0.057845015078783035 -0.08636964112520218 -0.01514334324747324
0.0932326465845108 -0.06832344830036163 -0.042061012238264084
0.02323579229414463 -0.049202412366867065 -0.40041419863700867
-0.07032448053359985 -0.07815738767385483 0.2665293514728546
-0.07013395428657532 0.11037324368953705 -0.09652119874954224
-0.06558999419212341 0.0569167397916317 -0.21982857584953308
-0.0742608830332756 -0.07531804591417313 -0.0061860037967562675
0.017886722460389137 -0.0911853164434433 0.049697019159793854
-0.01743139699101448 -0.044649895280599594 -0.30078965425491333
-0.11872147023677826 0.022334083914756775 0.1189051941037178
0.08447077125310898 -0.04494686424732208 0.39366471767425537
-0.03742339834570885 0.13468463718891144 -0.0017963387072086334
-0.11684610694646835 0.02194955199956894 -0.007396530359983444
0.018093356862664223 -0.0974419116973877 -0.07023106515407562
0.11443809419870377 -0.050518207252025604 -0.06558182835578918
0.047103941440582275 -0.09089786559343338 -0.008057255297899246
0.03671205788850784 -0.08823610842227936 0.0095622967928648
-0.11413753032684326 0.031193658709526062 0.024745462462306023
-0.11657974123954773 0.0061905039474368095 0.005449797958135605
0.07808229327201843 -0.07538747042417526 -0.1141931414604187
0.03509391471743584 -0.08702798187732697 0.20722702145576477
0.11768271028995514 -0.02220732718706131 0.0659283921122551
0.04691805690526962 -0.08588007092475891 0.04060053825378418
0.04859493300318718 -0.0948314368724823 -0.029646389186382294
0.011348618194460869 -0.09697532653808594 0.16781890392303467
-0.0855051651597023 0.08480747044086456 -0.1010134220123291
0.06286463141441345 -0.06914804130792618 0.2852466106414795
-0.10917112231254578 0.0560193695127964 0.08192077279090881
-0.06454065442085266 0.06281930208206177 -0.20986931025981903
-0.005201727617532015 -0.05307477340102196 -0.30257344245910645
0.010219925083220005 -0.0958390161395073 0.1674695461988449
0.09348808228969574 -0.059140607714653015 0.055692486464977264
0.06929285079240799 -0.08027339726686478 -0.0017093513160943985
0.041101522743701935 -0.09461797028779984 -0.028646282851696014
-0.0033081714063882828 -0.09616856276988983 0.3792991042137146
-0.11877602338790894 -0.048205312341451645 0.3437052071094513
-0.03266770392656326 0.05713111162185669 -0.3251204192638397
-0.0824967622756958 0.09560491144657135 0.03817284107208252
-0.11702445149421692 0.05499917268753052 0.15208110213279724
0.026678744703531265 -0.09042972326278687 0.24468326568603516
0.06211201101541519 -0.08341558277606964 -0.12697185575962067
0.05290001258254051 -0.07810384035110474 0.18620318174362183
-0.04347313567996025 0.08939935266971588 -0.23568975925445557
-0.11329343914985657 0.04756811261177063 0.008366566151380539
-0.03386128693819046 -0.09802871197462082 0.0372106209397316
-0.11203021556138992 0.047855131328105927 0.007770860102027655
-0.0716463029384613 0.14049719274044037 0.2330322563648224
0.07268142700195312 -0.06127091124653816 -0.2196708619594574
-0.1169113963842392 0.006311399862170219 0.029394494369626045
0.0681123360991478 -0.08848453313112259 -0.08514539897441864
-0.10993418097496033 0.06489835679531097 -0.05712326616048813
-0.05415581166744232 0.1326552778482437 0.10483113676309586
-0.05943342670798302 -0.08348202705383301 -0.024666201323270798
0.0033704303205013275 -0.098335862159729 -0.10967669636011124
-0.09840813279151917 0.11001700162887573 0.19442307949066162
-0.10989132523536682 0.05787542462348938 0.08319799602031708
-0.11749731004238129 0.024812178686261177 0.08183136582374573
0.057296693325042725 -0.08647194504737854 -0.023269597440958023
-0.1053568497300148 0.07495909929275513 0.10240396857261658
-0.09460192918777466 0.11116321384906769 0.17514368891716003
-0.0853799432516098 0.05397088825702667 -0.18568101525306702
0.051299046725034714 -0.08175133168697357 0.41822385787963867
-0.0874406099319458 0.14390388131141663 0.39748087525367737
0.01765286922454834 -0.0729190781712532 -0.25156649947166443
-0.05243399739265442 -0.05289988964796066 -0.21956795454025269
0.03549855202436447 -0.06286013126373291 -0.24060189723968506
-0.002364467829465866 0.08716078847646713 -0.28593045473098755
0.06112632155418396 -0.09006550908088684 -0.056611403822898865
-0.1155347228050232 0.021732142195105553 -0.005849102512001991
0.05759286507964134 -0.08836306631565094 -0.02422620914876461
0.10383491963148117 -0.05712626501917839 0.0009393636137247086
0.10158847272396088 -0.0476076602935791 -0.1566990613937378
-0.08053012192249298 0.13737785816192627 0.28445202112197876
-0.0491986945271492 0.13119074702262878 0.039801567792892456
-0.1103803962469101 0.056870002299547195 0.08228244632482529
-0.06334791332483292 0.09742830693721771 -0.1622653752565384
-0.08495421707630157 0.10023681074380875 0.022122833877801895
0.04486770182847977 -0.09283377230167389 -0.008166609331965446
-0.05560995265841484 0.12703455984592438 0.025167904794216156
-0.11254739761352539 0.07264265418052673 0.17287307977676392
0.07320064306259155 -0.08160161972045898 -0.12694478034973145
0.04193522408604622 -0.08374105393886566 0.15921612083911896
0.04639817401766777 -0.09267093986272812 -0.01050405390560627
-0.10745584964752197 0.07021822780370712 -0.05168277770280838
-0.11732619255781174 0.023552298545837402 0.08059504628181458
-0.06387016177177429 -0.07550510764122009 -0.06835051625967026
-0.11665445566177368 0.023989234119653702 0.08141596615314484
-0.07148607820272446 0.013876649551093578 -0.2665824890136719
0.08574697375297546 -0.057621486485004425 0.11150036752223969
0.06854274123907089 -0.03478609770536423 -0.3965422511100769
0.01756851002573967 -0.09985848516225815 0.09644727408885956
0.021452203392982483 -0.09292759001255035 0.07096678018569946
-0.11548830568790436 0.021920140832662582 -0.006617613602429628
0.04223538190126419 -0.0946602150797844 -0.04243617132306099
-0.11722974479198456 0.02415907382965088 0.08281102776527405
-0.14288786053657532 0.03834906220436096 0.380131334066391
0.07350627332925797 -0.06469999253749847 0.17515239119529724
-0.11641144007444382 0.02095755562186241 -0.008046440780162811
-0.11775216460227966 0.03171166777610779 0.02353082224726677
0.11297132074832916 -0.046435773372650146 -0.006657227873802185
0.036671221256256104 -0.05141603201627731 -0.34675276279449463
0.04710821434855461 -0.09197183698415756 -0.009091302752494812
-0.02846832573413849 0.12710340321063995 -0.11642573773860931
0.018278956413269043 -0.09877362847328186 -0.07348646968603134
-0.11517585813999176 0.04175632819533348 0.05408702418208122
-0.11658857762813568 0.005756668746471405 0.00537487119436264
-0.11306290328502655 -0.020147930830717087 0.07558916509151459
0.024597611278295517 -0.095405712723732 0.014625116251409054
0.0860896185040474 -0.040952980518341064 -0.2711285650730133
-0.06391534209251404 0.07144427299499512 -0.19443035125732422
-0.07218466699123383 0.11295077204704285 -0.028280610218644142
0.10366398096084595 -0.05784367769956589 -0.0005452912300825119
-0.05542992427945137 0.14695607125759125 0.2217978537082672
-0.08248743414878845 0.10077454149723053 0.055929675698280334
-0.10925400257110596 -0.03504280373454094 0.10501888394355774
-0.06658153980970383 -0.0007947850972414017 -0.2897108197212219
0.02096477523446083 -0.09539466351270676 0.13964977860450745
-0.026807911694049835 -0.09904702007770538 -0.06472641974687576
-0.11216320097446442 -0.021757256239652634 0.05082573741674423
-0.02502315863966942 -0.04744989424943924 -0.2613834738731384
-0.09299342334270477 0.07826775312423706 -0.07609348744153976
-0.06179248169064522 0.12684199213981628 0.09087694436311722
-0.11611923575401306 0.023027833551168442 0.08286389708518982
-0.026877902448177338 -0.09556853026151657 0.3122473359107971
0.04638761654496193 -0.08636585623025894 -0.10070410370826721
0.05170377716422081 -0.07401898503303528 0.3091219961643219
0.07806669920682907 -0.06173691898584366 -0.20022669434547424
0.04140891879796982 -0.09383378177881241 -0.029338695108890533
-0.12180089950561523 0.005618009250611067 0.1748412698507309
-0.1124352514743805 0.0321071594953537 -0.07331482321023941
0.12796427309513092 -0.016562655568122864 -0.0033216942101716995
-0.007361570373177528 -0.08018308132886887 -0.2098003327846527
-0.11256013810634613 0.04794952645897865 0.007653245702385902
-0.05784039944410324 -0.06080377846956253 -0.18352918326854706
-0.11241409182548523 0.04942294955253601 0.033026568591594696
-0.11440248042345047 0.08826515078544617 0.264362633228302
-0.009074649773538113 -0.10034395754337311 0.018948828801512718
-0.05476391315460205 0.13368122279644012 0.10433360189199448
-0.11522498726844788 0.007355378940701485 0.004481063224375248
-0.1107194572687149 -0.018779829144477844 -0.045347925275564194
0.0054324716329574585 -0.09061966836452484 -0.19752173125743866
0.08825420588254929 -0.07390710711479187 -0.08805976808071136
0.06715474277734756 -0.0838746502995491 -0.004405082203447819
0.003246057778596878 -0.05478688329458237 -0.3258187770843506
-0.11465927958488464 0.03121214732527733 0.02557588368654251
0.05132872611284256 -0.08225173503160477 0.07331278920173645
-0.11649800837039948 0.030841682106256485 0.027510657906532288
-0.11027640104293823 -0.029160000383853912 -0.02894999459385872
0.03839878737926483 -0.08939589560031891 0.02046510949730873
0.11350995302200317 -0.02345598302781582 0.156132772564888
0.08660219609737396 -0.05229760706424713 0.21294276416301727
-0.11800898611545563 0.05023636668920517 0.17286616563796997
-0.11601902544498444 0.018581386655569077 -0.09631485491991043
-0.04073544964194298 -0.08909520506858826 0.13365991413593292
-0.1067628562450409 0.05148031935095787 -0.09608560800552368
-0.06343220919370651 0.0027796910144388676 -0.29046279191970825
0.13009069859981537 -0.019028037786483765 -0.03604855760931969
-0.0970134288072586 -0.0553504154086113 0.034986816346645355
-0.0016936473548412323 -0.0942663624882698 0.2652598023414612
0.09803460538387299 -0.05569518357515335 -0.07765386253595352
-0.03515556454658508 -0.09495531767606735 0.19621782004833221
-0.08224451541900635 -0.06415899097919464 0.062250833958387375
-0.08549312502145767 0.04311598464846611 -0.213306725025177
-0.07350818812847137 0.06945881247520447 -0.1737491637468338
-0.11558479070663452 0.005768113769590855 0.005177628248929977
-0.1119040995836258 0.04780082404613495 0.007429109886288643
0.1040383130311966 -0.04652352258563042 0.02925746515393257
-0.08474169671535492 0.09739650040864944 0.048814378678798676
0.046910982578992844 -0.08518438041210175 -0.09951101243495941
0.04641896113753319 -0.09333151578903198 -0.008324663154780865
-0.05727767199277878 0.13077214360237122 0.09106998145580292
-0.12645979225635529 0.0112041300162673 0.23574163019657135
0.0045823585242033005 -0.09844259172677994 -0.10763417184352875
-0.08879704773426056 0.09369248151779175 0.010050400160253048
-0.006383499130606651 -0.07172353565692902 -0.24286392331123352
-0.014714442193508148 0.04244593530893326 -0.4396747350692749
0.11321042478084564 -0.04809138923883438 -0.07690474390983582
-0.025072570890188217 -0.09672614932060242 0.02796786278486252
-0.11604553461074829 0.032240986824035645 0.02611670270562172
0.051104407757520676 -0.07866023480892181 0.19322100281715393
-0.07047522813081741 -0.08308610320091248 0.29441404342651367
0.05799698829650879 -0.08677633851766586 -0.021611062809824944
-0.06644833087921143 0.11513315141201019 -0.12907519936561584
-0.094541534781456 0.08545562624931335 -8.629658259451389e-05
-0.1181306391954422 0.03431675583124161 0.08915752917528152
-0.08658590912818909 0.14175298810005188 0.3727419376373291
-0.11085677146911621 0.06621243804693222 -0.022161440923810005
0.013639401644468307 -0.08618825674057007 -0.1346467286348343
0.10469836741685867 -0.058412883430719376 -0.0007871368434280157
0.016551842913031578 -0.0903829038143158 -0.13540351390838623
0.04683464765548706 -0.09055523574352264 -0.00907055288553238
0.0894477367401123 -0.023153740912675858 -0.2944483757019043
0.1005629152059555 -0.023486966267228127 -0.27129030227661133
-0.1286284625530243 -0.01221294142305851 0.3081490397453308
-0.05111462250351906 -0.0529063418507576 -0.22138354182243347
0.11182703822851181 -0.04738512635231018 0.003661850467324257
0.05731431767344475 -0.08634096384048462 -0.01703822985291481
0.016224203631281853 -0.09711006283760071 -0.07147357612848282
0.015008940361440182 -0.09606959670782089 -0.017487894743680954
-0.09503239393234253 0.11022473871707916 0.1507331132888794
0.04220796376466751 -0.09469477832317352 -0.02946140244603157
0.05816610902547836 -0.05165044963359833 -0.28852906823158264
0.05731426179409027 -0.07469797134399414 0.1757027506828308
-0.12115219235420227 0.06966575235128403 0.19705311954021454
-0.09282532334327698 0.08746180683374405 0.04912625253200531
-0.04028097912669182 0.12316809594631195 -0.10631193220615387
-0.11127642542123795 0.05806179344654083 0.08114048093557358
-0.11808247864246368 0.03274785727262497 0.09050987660884857
0.1324383020401001 -0.017541473731398582 -0.10732801258563995
-0.11729176342487335 0.005869681015610695 0.002080620266497135
-0.04673411324620247 -0.0677965059876442 -0.1646949052810669
0.07556235790252686 -0.08698862046003342 -0.09694748371839523
-0.08633936941623688 -0.06621246784925461 0.060786157846450806
-0.024273395538330078 -0.0983528271317482 -0.1162588894367218
-0.08594663441181183 0.06451393663883209 -0.15446126461029053
0.017588861286640167 -0.09516352415084839 0.035844527184963226
-0.04990360513329506 -0.08487662672996521 -0.04748791828751564
-0.061826497316360474 -0.07339069247245789 -0.12265928834676743
0.10999663919210434 -0.020044203847646713 0.4060432016849518
-0.11616818606853485 0.01291947066783905 0.05165177583694458
0.07246844470500946 -0.06354943662881851 0.17403098940849304
0.0375777892768383 -0.09109307080507278 0.006657595746219158
0.08274029940366745 -0.07211215794086456 -0.04044167697429657
-0.09043851494789124 0.12031558156013489 0.21615591645240784
0.04703732579946518 -0.08300294727087021 0.17971447110176086
-0.1134396344423294 0.04995445907115936 0.026009108871221542
-0.01612883247435093 0.09975859522819519 -0.22391483187675476
-0.009491698816418648 -0.09918058663606644 0.019156290218234062
0.04643889144062996 -0.09448837488889694 -0.031001213937997818
-0.10490582138299942 0.08266587555408478 0.11897587776184082
0.10389147698879242 -0.04745284095406532 0.031085584312677383
-0.11360615491867065 0.013101859018206596 -0.07163023203611374
-0.1120239794254303 0.11155597865581512 0.3633877635002136
-0.11262767016887665 0.10153822600841522 0.31413722038269043
-0.08775884658098221 -0.059404607862234116 0.090023472905159
0.040144577622413635 -0.08623839914798737 0.033059511333703995
0.09922288358211517 -0.029702473431825638 -0.2371024191379547
0.040180034935474396 -0.08519278466701508 0.4035225510597229
0.11426116526126862 -0.04857610911130905 0.002029559575021267
-0.11092109978199005 0.04842209070920944 0.02604152448475361
-0.11483094096183777 0.02301051840186119 0.08212283253669739
0.007897190749645233 -0.045359816402196884 -0.3828132152557373
0.030227679759263992 -0.09124812483787537 0.04151269793510437
0.08770270645618439 -0.011977968737483025 -0.37371933460235596
-0.08821942657232285 0.13012441992759705 0.2675687074661255
0.10593700408935547 -0.0590776763856411 -0.033306121826171875
-0.07934343814849854 0.1351052075624466 0.24779412150382996
-0.06937670707702637 -0.07915421575307846 0.20883576571941376
-0.11342360824346542 -0.020035723224282265 0.04946798086166382
0.02568431943655014 -0.08928171545267105 0.28972890973091125
-0.0735902339220047 0.12479396909475327 0.13280178606510162
-0.11172404140233994 -0.031556934118270874 0.13327385485172272
-0.009451866149902344 -0.09295441955327988 -0.1622021198272705
-0.12148741632699966 0.004810614511370659 0.17420151829719543
-0.10155320167541504 -0.010393408127129078 -0.13252407312393188
-0.06129615381360054 0.056374840438365936 -0.23649077117443085
0.025813281536102295 -0.09294547140598297 0.13858777284622192
-0.11481884866952896 -0.03624553233385086 0.21791192889213562
-0.00812749844044447 -0.0947549045085907 -0.16235491633415222
-0.09300670772790909 0.08788405358791351 -0.00010325852781534195
0.07441438734531403 -0.08576447516679764 -0.06458894163370132
-0.1121215894818306 -0.018702641129493713 0.07405607402324677
-0.11335812509059906 0.11301298439502716 0.38401132822036743
-0.09453906118869781 0.06181856989860535 -0.12053282558917999
-0.10098252445459366 0.048728227615356445 -0.13780644536018372
-0.11671232432126999 0.011618450284004211 0.05392470955848694
0.03916728124022484 -0.08077102899551392 -0.1672617346048355
-0.11966514587402344 0.05018140375614166 0.17443588376045227
-0.1025586649775505 0.0752112865447998 4.168599843978882e-06
-0.008893303573131561 0.093976229429245 -0.25063174962997437
-0.06137445569038391 -0.0731377899646759 -0.12450692057609558
0.08590205013751984 -0.07052478194236755 -0.040820877999067307
-0.08742727339267731 0.0675661489367485 -0.13732239603996277
-0.047563280910253525 0.13241666555404663 0.03807688504457474
-0.039961669594049454 0.047853417694568634 -0.30216944217681885
0.11378510296344757 -0.04873323068022728 -0.005674920044839382
-0.1115582138299942 0.050271302461624146 0.02652561105787754
-0.1079576164484024 0.07039938122034073 -0.03694789111614227
0.018530968576669693 -0.0829247236251831 -0.1671108901500702
0.03585619479417801 -0.07374563813209534 -0.1902790665626526
-0.11196838319301605 -0.04568023979663849 0.19645924866199493
-0.12063713371753693 0.0499497726559639 0.17477625608444214
-0.10027167201042175 -0.061961762607097626 0.2975388169288635
-0.07556283473968506 0.10945621132850647 0.0463072843849659
0.05988597124814987 -0.07731388509273529 0.14532695710659027
-0.004250671714544296 -0.10126614570617676 -0.13378047943115234
0.041647471487522125 0.05723278596997261 -0.475197970867157
-0.03964778408408165 -0.09574292600154877 0.2950296998023987
0.0328885018825531 -0.06612346321344376 -0.25889864563941956
-0.09273616969585419 0.09355758130550385 0.05906372517347336
-0.07146015018224716 -0.04886269569396973 -0.23202034831047058
0.026576664298772812 -0.08274085819721222 -0.16738705337047577
0.01609424501657486 -0.0979137197136879 0.0941590815782547
-0.07489626109600067 0.13602152466773987 0.1656346321105957
