-0.11003378033638 0.09433811902999878 0.3086259365081787
0.08748062700033188 -0.07946044951677322 -0.017106886953115463
-0.00039345212280750275 -0.10101600736379623 -0.14893969893455505
-0.10115581750869751 0.05285337567329407 0.02292456477880478
0.06538217514753342 -0.0974213033914566 0.2973189949989319
-0.11611635237932205 0.02401401475071907 0.13866066932678223
0.032692208886146545 -0.1162818968296051 0.05341160297393799
-0.10985961556434631 0.05437219887971878 0.008779133670032024
-0.08822178840637207 -0.06595958769321442 0.04980066418647766
-0.11488697677850723 0.020108576864004135 0.02343669906258583
0.03146376833319664 -0.114895299077034 0.09592321515083313
0.10792379081249237 -0.06320367753505707 -0.006405670195817947
-0.11019537597894669 0.05036197602748871 0.007700787857174873
-0.06408392637968063 0.06469745934009552 0.017619118094444275
0.0828452929854393 -0.09461115300655365 -0.11771140992641449
0.08638086915016174 -0.07739166170358658 -0.011638198047876358
0.10144712030887604 -0.075197733938694 -0.006878476589918137
-0.11718835681676865 0.023737335577607155 0.09433058649301529
0.09514862298965454 -0.055653154850006104 -0.010238642804324627
-0.12230436503887177 0.016411006450653076 0.36925292015075684
0.027109801769256592 -0.02141917496919632 -0.4937584698200226
-0.031343016773462296 -0.12033329904079437 0.232745960354805
0.05732478201389313 -0.10838930308818817 0.17254622280597687
-0.05336352810263634 -0.11079801619052887 0.35450631380081177
0.051743194460868835 -0.11406528949737549 -0.040767353028059006
0.020241547375917435 -0.06832475960254669 -0.29463163018226624
-0.03791472315788269 -0.11762434244155884 0.14105834066867828
-0.11363638192415237 -0.026721414178609848 0.06660398840904236
-0.09764912724494934 -0.05578496307134628 -0.14203155040740967
0.07299032807350159 -0.09349550306797028 0.057813264429569244
-0.12018446624279022 0.020621009171009064 0.00971949752420187
0.09455213695764542 -0.07625707983970642 -0.004759893286973238
-0.09478834271430969 0.08221333473920822 0.10837357491254807
-0.06142492592334747 0.05473147705197334 -0.04499219357967377
-0.09739881753921509 -0.057666316628456116 0.10619567334651947
-0.06184061989188194 0.10847663879394531 0.023794157430529594
0.1416129171848297 -0.05925395339727402 -0.2663852274417877
-0.11387767642736435 -0.028287969529628754 0.014736165292561054
0.050879716873168945 -0.09048064798116684 -0.006513937842100859
0.09688810259103775 -0.05814453214406967 -0.007470333017408848
-0.05048389732837677 0.11251513659954071 -0.2726537883281708
0.08212929964065552 -0.08580294251441956 -0.10953406244516373
-0.1197936087846756 -0.03138197213411331 0.3097531199455261
0.046507976949214935 -0.10403008759021759 0.20605848729610443
-0.11382050812244415 -0.02924722619354725 0.008507069200277328
0.023826265707612038 -0.11510303616523743 -0.16977258026599884
-0.11017000675201416 0.052998241037130356 0.00965605117380619
0.056140635162591934 -0.1010122075676918 -0.19958218932151794
-0.11060015112161636 0.04925055056810379 0.011011675000190735
0.029644403606653214 -0.11534853279590607 -0.10328510403633118
-0.10141678154468536 -0.014693034812808037 0.05508532002568245
-0.10026216506958008 0.08754920214414597 0.09373754262924194
-0.0533723384141922 -0.043545231223106384 0.05710407346487045
-0.0018843989819288254 -0.1314765214920044 0.3533495366573334
-0.1112501248717308 0.04133976995944977 -0.06683176010847092
0.0459769070148468 -0.10088733583688736 -0.03915628790855408
0.1105339303612709 -0.056678857654333115 -0.006655815057456493
-0.10058964788913727 0.08013332635164261 0.200829416513443
-0.10114932805299759 -0.06028740480542183 0.0773005336523056
0.10410046577453613 -0.0595250241458416 -0.004174187779426575
-0.10576799511909485 -0.04126941040158272 -0.031700387597084045
-0.06521005928516388 -0.09102906286716461 -0.1292591094970703
-0.07663296163082123 -0.0741778314113617 -0.027263149619102478
-0.11034741997718811 -0.02883303537964821 0.24694368243217468
0.062471285462379456 -0.10339009761810303 -0.0013604462146759033
-0.08361485600471497 0.12175978720188141 -0.10714986175298691
-0.11027318984270096 0.06975767016410828 0.06142363324761391
0.03730481490492821 -0.10859700292348862 -0.04805082082748413
-0.0985238254070282 0.04150627180933952 0.16377922892570496
-0.0110880546271801 -0.11575038731098175 0.014753435738384724
-0.1119380071759224 -0.023201558738946915 0.04104331135749817
-0.10415901988744736 -0.030018609017133713 0.008946704678237438
-0.10985106229782104 0.04146920144557953 0.1613280028104782
-0.066337950527668 -0.07308714836835861 -0.09665675461292267
0.08864392340183258 -0.08516481518745422 -0.02961082197725773
-0.08352076262235641 -0.06594424694776535 0.1463685780763626
0.01163739338517189 -0.0732179582118988 -0.3482140898704529
0.09103155881166458 -0.03885047882795334 -0.38108116388320923
-0.11239583045244217 0.028211014345288277 0.019515495747327805
0.05112725496292114 -0.09506970643997192 -0.10484252125024796
-0.08679420500993729 -0.0496937558054924 -0.24246835708618164
0.04757039621472359 -0.11553606390953064 0.3199670612812042
0.05198735371232033 -0.1077241599559784 -0.043998755514621735
-0.08503908663988113 -0.05675053596496582 -0.03277440369129181
0.05331306904554367 -0.10686632990837097 -0.010997740551829338
-0.08902258425951004 -0.06449408084154129 -0.02953772433102131
-0.09882701933383942 -0.07520776242017746 0.05478664115071297
-0.051716793328523636 0.13612104952335358 -0.10214506089687347
-0.05483885109424591 -0.06262721121311188 -0.17627547681331635
-0.11180055886507034 -0.024046191945672035 0.01690777577459812
-0.10255031287670135 0.02959778904914856 0.20725081861019135
0.09250981360673904 -0.08801322430372238 -0.1602853238582611
-0.10675870627164841 0.07767580449581146 0.094549760222435
0.0402492955327034 -0.10389866679906845 -0.115780308842659
-0.10161788761615753 -0.0274688471108675 0.004161472897976637
-0.10286815464496613 -0.041398875415325165 0.11061329394578934
-0.10421843826770782 -0.024717409163713455 0.012846026569604874
0.1077251210808754 -0.055952925235033035 -0.00320393405854702
-0.03828587383031845 0.039308130741119385 -0.39112046360969543
-0.06871797144412994 0.12868593633174896 -0.006754573434591293
-0.09852034598588943 -0.05507514625787735 -0.19397133588790894
-0.1076924279332161 -0.005136502906680107 -0.058849453926086426
-0.10477158427238464 0.051007308065891266 0.016911083832383156
0.02245010808110237 -0.114309161901474 0.0006083708722144365
0.04181037098169327 -0.10869232565164566 -0.041270993649959564
0.035203199833631516 -0.11951585114002228 0.23358552157878876
0.05657515302300453 -0.0907948762178421 -0.009175222367048264
0.09416201710700989 -0.08352390676736832 0.026305044069886208
-0.09369771182537079 -0.04759998992085457 -0.2047419250011444
-0.02939422056078911 -0.05435921624302864 -0.31643131375312805
0.1396283358335495 -0.06329984962940216 0.1975538730621338
0.08304311335086823 -0.09336109459400177 -0.02218400128185749
-0.0725325345993042 -0.026918519288301468 0.14759895205497742
-0.10905978083610535 0.04568859934806824 0.008745847269892693
0.10311844944953918 -0.07150951772928238 0.038087330758571625
0.09613378345966339 -0.06003185734152794 -0.0006246641278266907
-0.051992762833833694 -0.08212893456220627 -0.1059226244688034
-0.04511013627052307 -0.09852707386016846 0.03583702817559242
0.09567523002624512 -0.08240710943937302 -0.10912264138460159
0.12302838265895844 -0.06476366519927979 0.29761406779289246
0.03624225780367851 -0.10581211745738983 -0.1249726414680481
0.0762772187590599 -0.09547663480043411 0.0889434665441513
-0.07027089595794678 0.10699459910392761 0.05431472510099411
0.05781146138906479 -0.06904775649309158 -0.17126190662384033
0.08274567127227783 -0.08156435936689377 -0.016089513897895813
-0.08121450245380402 0.060895711183547974 -0.1959180235862732
-0.04387132078409195 -0.09608540683984756 -0.16801832616329193
-0.0949903279542923 0.07645764946937561 0.08486107736825943
-0.046147555112838745 0.10799048840999603 -0.3588404357433319
0.05766216665506363 -0.10528704524040222 -0.03988364338874817
0.01005227118730545 -0.11304736882448196 0.10319659858942032
-0.11113733798265457 -0.01624644547700882 0.061254750937223434
0.10293509066104889 -0.05990302935242653 -0.0014661364257335663
0.11449265480041504 -0.059105679392814636 0.009290892630815506
-0.014395578764379025 -0.12187983095645905 0.10212942212820053
0.10150627791881561 -0.058562252670526505 -0.004474964924156666
-0.10772660374641418 -0.025986315682530403 0.06067498028278351
-0.11649912595748901 0.027295928448438644 0.0027695074677467346
0.0668695718050003 -0.09483407437801361 -0.3182952404022217
-0.1095212921500206 0.04915168508887291 0.010411098599433899
-0.08243754506111145 0.07513200491666794 -0.2663227915763855
-0.07948596030473709 0.023986877873539925 0.07822724431753159
0.09639833122491837 -0.06964832544326782 0.015893064439296722
0.05502203851938248 -0.10644716024398804 -0.051850274205207825
-0.052627526223659515 0.1176004707813263 0.06326551735401154
-0.08682640641927719 -0.06261733174324036 -0.023296494036912918
0.03354034572839737 -0.10823403298854828 -0.13027426600456238
-0.0978827029466629 0.10527794063091278 -0.016356494277715683
-0.11159458756446838 0.011008849367499352 0.01802113838493824
0.06432285159826279 -0.09425892680883408 -0.010976091027259827
-0.11549808830022812 0.014018209651112556 0.01126166246831417
-0.11836282163858414 0.022171050310134888 0.1875515580177307
-0.08974605798721313 -0.060545340180397034 -0.02201899327337742
-0.11027954518795013 -0.014298411086201668 -0.06080702692270279
0.08890143036842346 -0.08212648332118988 -0.014015160501003265
0.021542493253946304 -0.11208480596542358 -0.13200363516807556
-0.08001793175935745 -0.0864635556936264 0.18271856009960175
0.10284392535686493 -0.0525735467672348 0.01904156431555748
-0.08986705541610718 0.08994916826486588 -0.1753281205892563
0.1030857041478157 -0.05500837415456772 -0.0003408212214708328
0.0969485491514206 -0.08310125768184662 0.15094803273677826
0.08711245656013489 -0.07945209741592407 -0.01213569100946188
0.09632230550050735 -0.0695267990231514 -0.2482231706380844
-0.11219114065170288 0.054935138672590256 0.003987358883023262
-0.03727172315120697 -0.04896771162748337 -0.3725185990333557
-0.12482752650976181 0.012091584503650665 0.2789669632911682
0.01738174632191658 -0.11414214968681335 -0.04255688935518265
0.021969102323055267 -0.11633920669555664 0.20393900573253632
-0.0585966631770134 -0.09471013396978378 -0.04231389984488487
0.10679569840431213 -0.06813149154186249 -0.0134881054982543
-0.05691879242658615 0.145338237285614 0.22186283767223358
-0.057092949748039246 0.11399029195308685 -0.08251507580280304
0.11162436008453369 -0.05709566920995712 -0.005228180438280106
-0.10530909150838852 -0.040442027151584625 -0.029676180332899094
0.0016144211404025555 -0.10911788791418076 0.017782438546419144
0.09897514432668686 -0.0804559513926506 -0.3535977900028229
-0.02141471952199936 -0.09600269049406052 -0.252450168132782
-0.10507608205080032 -0.043956708163022995 -0.07192907482385635
0.0018756557255983353 -0.10919632762670517 -0.13165824115276337
-0.1114765852689743 0.06675869971513748 0.2505493760108948
0.090659499168396 -0.07577142864465714 -0.013654351234436035
0.08502574265003204 -0.08015358448028564 -0.018956078216433525
0.04337793216109276 -0.10810772329568863 -0.10892008990049362
-0.0707341879606247 0.1136741042137146 0.028777966275811195
-0.10924103111028671 -0.025279207155108452 0.014659890905022621
0.09902752190828323 -0.06431059539318085 -0.0038007982075214386
0.10362500697374344 -0.06450937688350677 0.00043406622717157006
-0.0502173937857151 0.12038958817720413 0.08116379380226135
-0.04018128290772438 -0.11983651667833328 0.2941541373729706
-0.07466079294681549 0.10643602162599564 0.12066874653100967
-0.11429083347320557 -0.05324196442961693 0.34635108709335327
-0.11183144152164459 0.02480931207537651 0.019132468849420547
0.10121025145053864 -0.10399080067873001 0.3541761636734009
0.04252702742815018 -0.08764611184597015 -0.028076782822608948
-0.11036736518144608 -0.019810423254966736 0.06076035276055336
0.06461513042449951 -0.10842746496200562 0.28882354497909546
-0.11293690651655197 0.00899425521492958 0.0064626336097717285
-0.07366576790809631 -0.05123760178685188 -0.0337870754301548
-0.11008560657501221 0.021198894828557968 0.09053518623113632
0.12220844626426697 -0.07518601417541504 0.3821566700935364
-0.09455961734056473 0.07616691291332245 0.19044499099254608
-0.09082677215337753 0.08778443932533264 0.21426929533481598
-0.10121603310108185 -0.02070407196879387 0.022283293306827545
0.07010575383901596 -0.04708096757531166 -0.31926441192626953
-0.03738890215754509 -0.1151571199297905 0.3328081965446472
-0.020488344132900238 -0.09401660412549973 -0.039593059569597244
-0.10989171266555786 0.04786023497581482 0.004472784698009491
0.12389901280403137 -0.07070445269346237 -0.1937970072031021
-0.1082637682557106 -0.06217417120933533 0.248487651348114
-0.11600594967603683 0.008116689510643482 0.007996363565325737
0.02019609324634075 -0.1292893886566162 -0.12380518019199371
-0.11046922951936722 -0.018921004608273506 0.0707533061504364
-0.08770465105772018 0.08535389602184296 -0.13798293471336365
-0.007618142291903496 -0.10214047133922577 0.11363980919122696
-0.08655966073274612 -0.06783724576234818 -0.13964223861694336
-0.10866526514291763 -0.02776530385017395 -0.13643839955329895
0.1063825935125351 -0.06090949475765228 -0.004135694354772568
-0.11269939690828323 -0.04098333418369293 0.1469336450099945
-0.10722523927688599 -0.019963262602686882 -0.13434669375419617
-0.1229432076215744 0.02939232625067234 0.03662187606096268
-0.12007119506597519 0.03513890132308006 0.04551783204078674
0.10052432119846344 -0.08361013978719711 -0.06621942669153214
-0.1179792582988739 -0.018868522718548775 0.06992251425981522
-0.10739775002002716 -0.028269290924072266 0.010929282754659653
-0.052041664719581604 0.13016563653945923 0.2063502073287964
0.09858804941177368 -0.07588167488574982 0.008564874529838562
-0.11541280150413513 0.038040515035390854 0.052404727786779404
-0.09510228037834167 -0.023800434544682503 -0.13931335508823395
-0.0943424254655838 -0.056220971047878265 -0.028470929712057114
-0.11250974982976913 0.056035999208688736 0.15552297234535217
-0.1122746467590332 0.04872472584247589 0.012435633689165115
0.10591182112693787 -0.0736154168844223 -0.09595732390880585
-0.11749813705682755 0.0008363090455532074 0.0788176953792572
0.09796898812055588 -0.06790373474359512 0.07066419720649719
-0.08033563196659088 -0.07513085007667542 0.07021557539701462
-0.10414507240056992 -0.050424907356500626 -0.06420163810253143
-0.09920945018529892 0.07514887303113937 0.004094865173101425
-0.056676335632801056 0.09365297108888626 0.07458743453025818
-0.11062999069690704 -0.022680800408124924 0.06342283636331558
0.049835365265607834 -0.11432792246341705 -0.060208745300769806
-0.11512269824743271 0.02320859767496586 0.007931518368422985
-0.07689692080020905 0.024791566655039787 -0.11691093444824219
0.04205293208360672 -0.10689549148082733 0.031535033136606216
0.08020343631505966 -0.07521483302116394 -0.015119701623916626
0.0395832359790802 -0.11688793450593948 -0.05325697734951973
0.025392813608050346 -0.12822841107845306 0.006171027198433876
-0.08077909797430038 -0.0652163028717041 -0.023400267586112022
0.08957861363887787 -0.08074542135000229 -0.014239468611776829
0.11088649183511734 -0.07025668025016785 -0.11779716610908508
-0.1129605770111084 0.0529160238802433 0.06697308272123337
-0.010859817266464233 -0.10487016290426254 0.031942352652549744
0.06585070490837097 -0.009457269683480263 -0.4042944610118866
-0.0416632816195488 0.10634861886501312 -0.09872780740261078
0.010342511348426342 -0.1107652559876442 -0.0019240882247686386
-0.037368617951869965 -0.10914727300405502 -0.02516653947532177
0.08602092415094376 -0.09031376242637634 0.28445345163345337
-0.11342586576938629 0.01933271996676922 0.0035001523792743683
-0.05791700631380081 0.09686274826526642 0.01240581925958395
-0.11304423958063126 0.052077893167734146 0.008829115889966488
0.09798969328403473 -0.06757224351167679 0.13870950043201447
0.08872972428798676 -0.08776696771383286 -0.14589858055114746
-0.07526504248380661 0.012268473394215107 -0.29185593128204346
0.01735157147049904 -0.11620382219552994 -0.011331450194120407
0.10488887131214142 -0.06163166090846062 -0.003918753005564213
-0.12000860273838043 -0.002553703263401985 -0.14327305555343628
0.1128423810005188 -0.09224601089954376 0.3382980525493622
-0.047930292785167694 -0.09766136109828949 -0.06336203217506409
0.03638594225049019 -0.11400388181209564 0.21970313787460327
0.0683818832039833 -0.09833236783742905 -0.010550031438469887
-0.08491307497024536 0.036219120025634766 -0.179105743765831
-0.12226524949073792 0.031140780076384544 0.004875111393630505
0.003096918575465679 -0.12050224840641022 -0.06946562230587006
0.007510092109441757 -0.11406638473272324 -0.043651461601257324
-0.06850813329219818 0.09871479868888855 0.13960228860378265
-0.10676303505897522 0.04968535900115967 -0.022010438144207
-0.09177371859550476 -0.0820879265666008 0.15711060166358948
-0.07225069403648376 0.1249801367521286 0.22661519050598145
-0.10663039237260818 0.10835046321153641 0.10467424988746643
-0.10472847521305084 0.11655591428279877 0.30398139357566833
0.02098350040614605 -0.10927669703960419 -0.040926508605480194
0.10057339817285538 -0.08035929501056671 0.038810230791568756
-0.11911696195602417 0.04680565744638443 -0.08505889028310776
0.10443098098039627 -0.06654025614261627 -0.003941873088479042
-0.09678919613361359 -0.03158797323703766 0.21465836465358734
0.13110199570655823 -0.08539048582315445 0.3394218683242798
0.03639693558216095 -0.11373942345380783 -0.027006439864635468
-0.033024877309799194 -0.06699256598949432 -0.3521747291088104
0.10577685385942459 -0.057950377464294434 -0.0018501784652471542
-0.11231055855751038 0.02857639081776142 0.03399980440735817
0.09535474330186844 -0.07446204125881195 0.09297152608633041
-0.11064218729734421 0.04780186340212822 0.009625338017940521
0.00995444506406784 -0.11288603395223618 -0.031249593943357468
0.10125356912612915 -0.06442184746265411 -0.0032656127586960793
0.04012620449066162 -0.11157231032848358 -0.037671588361263275
0.08250810205936432 -0.08290889859199524 -0.009035087190568447
-0.0921059176325798 -0.06110911816358566 -0.028595566749572754
0.10659943521022797 -0.05889342352747917 -0.004502120427787304
-0.08689645677804947 0.08788412064313889 -0.11074884235858917
-0.08689914643764496 -0.05678284540772438 -0.034387897700071335
-0.11141711473464966 0.0541733019053936 0.014417849481105804
-0.10987559705972672 -0.060468778014183044 0.08184857666492462
-0.11661940813064575 -0.006787983700633049 0.15209275484085083
-0.03155100718140602 0.11335359513759613 -0.13887743651866913
0.04077685624361038 -0.1096566841006279 -0.03531794995069504
-0.06691957265138626 0.11463848501443863 0.028680821880698204
-0.11859796941280365 0.025332186371088028 -0.002778479363769293
0.04013516753911972 -0.10855148732662201 0.01704065129160881
-0.10546454787254333 0.036323074251413345 0.21788908541202545
-0.09648958593606949 -0.06171437352895737 0.09089011698961258
-0.11421172320842743 0.04663640633225441 0.007194243371486664
-0.12289251387119293 0.03998897224664688 -0.0514405257999897
0.08890355378389359 -0.08198347687721252 -0.015170966275036335
0.04631110653281212 -0.10668213665485382 -0.3803273141384125
0.04543896019458771 -0.10182582587003708 0.11307122558355331
-0.09568198770284653 -0.06350246071815491 0.12703858315944672
0.1153511255979538 -0.047420933842659 -0.04131287336349487
0.1132238581776619 -0.06127757579088211 -0.0047449516132473946
-0.10650385916233063 -0.03822408616542816 0.013378942385315895
0.0867796540260315 -0.08163867145776749 -0.027103213593363762
0.09642739593982697 -0.07549435645341873 0.2141539305448532
-0.010729791596531868 -0.08862137794494629 0.01079106330871582
-0.09415800124406815 -0.06061980128288269 -0.07133615016937256
0.01430368423461914 -0.12146899104118347 0.322587788105011
-0.10645205527544022 0.06987971067428589 0.11617361754179001
-0.023545391857624054 0.10900813341140747 -0.014895480126142502
-0.020054448395967484 -0.10043354332447052 0.2124076634645462
0.019976608455181122 -0.11656350642442703 -0.0012004813179373741
-0.008337488397955894 -0.09003405272960663 -0.288155734539032
-0.07200275361537933 0.03885786607861519 -0.350127637386322
-0.10776945948600769 -0.020865777507424355 0.008278924971818924
-0.10617710649967194 -0.027973182499408722 0.014813495799899101
-0.061258718371391296 -0.08365529775619507 -0.08719656616449356
0.09404993057250977 -0.09143528342247009 -0.07460062950849533
0.11054116487503052 -0.07861238718032837 -0.11098617315292358
0.01528499461710453 -0.13038794696331024 0.4004075527191162
0.03625379130244255 -0.09987618774175644 -0.11552350223064423
-0.07398302108049393 -0.07080425322055817 -0.1754365861415863
0.017418093979358673 -0.11127039790153503 -0.11098120361566544
-0.051049087196588516 -0.09880264103412628 -0.2023860216140747
0.10146187245845795 -0.0633772537112236 -0.0019012093544006348
-0.10066594183444977 -0.06783954054117203 0.07632916420698166
0.09452996402978897 -0.0746985375881195 0.04680992290377617
0.04318452998995781 -0.050057291984558105 -0.38279348611831665
0.06969517469406128 -0.10709931701421738 0.370243638753891
-0.07994737476110458 -0.06243357062339783 -0.03280401974916458
0.11511924117803574 -0.06515438109636307 0.009391522035002708
-0.092377208173275 0.1070004478096962 -0.08021124452352524
0.1156666949391365 -0.06469510495662689 0.010492704808712006
0.09157475084066391 -0.06121562048792839 -0.0020634825341403484
0.08234533667564392 -0.08352391421794891 0.07778582721948624
0.1266702562570572 -0.054985225200653076 0.17086990177631378
0.052176136523485184 -0.09281084686517715 0.006350413896143436
-0.07032432407140732 -0.0040679313242435455 -0.3278859257698059
-0.10480691492557526 0.009402023628354073 -0.19997183978557587
-0.028290757909417152 -0.0632067322731018 -0.21920548379421234
-0.07404300570487976 -0.08514014631509781 -0.08925242722034454
-0.030210407450795174 0.13436715304851532 0.009493375197052956
0.10809620469808578 -0.06052398681640625 -0.1377146989107132
-0.11576920747756958 0.056388694792985916 0.0011036251671612263
0.0676582008600235 -0.0993083044886589 -0.028472794219851494
-0.0818064883351326 -0.06433677673339844 -0.030115846544504166
-0.11357083916664124 0.03426491096615791 0.11351194977760315
-0.04821512848138809 0.06116402521729469 -0.31026366353034973
-0.11409857124090195 0.029068317264318466 0.09164958447217941
-0.10866855084896088 0.05436617136001587 0.01704307645559311
0.06909551471471786 -0.10148219019174576 -0.0249523613601923
-0.11355968564748764 0.05580264329910278 -0.1139983981847763
-0.08310799300670624 -0.019020047038793564 -0.2991601228713989
-0.11334523558616638 0.05163426324725151 0.0063638463616371155
0.09956935793161392 -0.06112063676118851 -0.00257028266787529
0.09918771684169769 -0.06625372171401978 -0.013350352644920349
0.056379519402980804 -0.10139772295951843 -0.009108791127800941
0.10776081681251526 -0.06395543366670609 0.10245511680841446
0.05456461012363434 -0.09957420080900192 0.0007667001336812973
-0.03871315345168114 -0.10253982245922089 0.154713973402977
-0.07951605319976807 0.11139760911464691 0.3406679034233093
-0.11688189208507538 0.025378409773111343 0.012352566234767437
-0.12458454817533493 -0.016087912023067474 0.3329585790634155
-0.10927031189203262 0.05274103954434395 0.013826216571033001
0.10314005613327026 -0.058821748942136765 -0.003326971083879471
-0.10917098820209503 0.057119984179735184 0.02371825836598873
0.10826977342367172 -0.06146901473402977 -0.00481342151761055
0.05073858052492142 -0.10377482324838638 -0.045601680874824524
-0.10186289250850677 0.056964896619319916 -0.014038315042853355
-0.11194389313459396 0.020687870681285858 0.09851187467575073
-0.10736172646284103 0.039423130452632904 -0.04984324425458908
-0.08430301398038864 -0.06898466497659683 -0.031149905174970627
0.06354027986526489 -0.09738872945308685 -0.014446723274886608
-0.08063927292823792 0.05764016509056091 -0.14722222089767456
-0.11488334834575653 -0.022244423627853394 -0.08574185520410538
0.10997013747692108 -0.05864989012479782 -0.001747429370880127
0.010071470402181149 -0.1218419075012207 0.16222862899303436
-0.0006050951778888702 -0.10781051218509674 -0.08928544819355011
0.08935105055570602 -0.08075326681137085 -0.027018869295716286
-0.08574164658784866 0.09010332077741623 0.03194506838917732
-0.10931103676557541 -0.02308143675327301 0.06421881914138794
0.0918046236038208 -0.09655103832483292 0.2074693888425827
-0.029900629073381424 -0.08309384435415268 -0.19060012698173523
-0.11586612462997437 0.02653982862830162 0.0016320422291755676
-0.1081664115190506 -0.034711841493844986 -0.09329252690076828
-0.0918470025062561 0.04952911287546158 -0.23802784085273743
-0.07854796946048737 -0.08628277480602264 0.10381001979112625
0.10815692692995071 -0.06335923075675964 -0.007310282438993454
-0.1182599887251854 0.052669793367385864 0.016713468357920647
-0.11134639382362366 0.04577508568763733 0.23920300602912903
0.09838560223579407 -0.08367651700973511 -0.28471502661705017
-0.0402851328253746 0.10472828894853592 -0.3136553466320038
-0.08987937867641449 -0.07391314208507538 -0.06901524215936661
-0.1111309826374054 -0.01355167105793953 0.06592373549938202
-0.11327768117189407 -0.014974772930145264 0.06186223030090332
-0.0611770823597908 -0.06311003863811493 -0.20167742669582367
-0.11889906227588654 0.0030419370159506798 0.09712697565555573
0.03000318445265293 -0.08700540661811829 -0.3265206217765808
0.12251052260398865 -0.03288624808192253 0.011629974469542503
0.10076433420181274 -0.05748550593852997 -0.0051132324151694775
-0.06199207529425621 -0.10984475910663605 0.2472102791070938
-0.08238880336284637 -0.05886109173297882 -0.025869356468319893
0.052689846605062485 -0.10995741933584213 -0.1486855149269104
0.10809239745140076 -0.04731624573469162 0.0594770610332489
-0.0380229577422142 -0.10298436135053635 -0.0636177659034729
-0.06472915410995483 -0.007946481928229332 -0.21981078386306763
0.03523604944348335 -0.1078965812921524 -0.044767122715711594
-0.1236344426870346 0.028784101828932762 0.006691431626677513
0.01377866230905056 -0.09843133389949799 -0.14217118918895721
-0.11543753743171692 0.04974288120865822 -0.017537793144583702
0.08750438690185547 -0.08350012451410294 0.1705664098262787
-0.06565830111503601 0.08700290322303772 0.065830297768116
-0.10745476186275482 -0.038566797971725464 0.013558315113186836
-0.07647440582513809 0.12297865748405457 0.3870207667350769
0.1030707061290741 -0.04324962571263313 -0.15241563320159912
-0.10812340676784515 -0.030187536031007767 0.06293067336082458
0.001651872880756855 -0.11172650009393692 -0.20434817671775818
-0.0026924535632133484 0.028226133435964584 -0.4906693398952484
0.09578737616539001 -0.08154229074716568 -0.01893165335059166
0.047309741377830505 -0.05058722943067551 -0.21986621618270874
0.10480897128582001 -0.062405772507190704 -0.013278957456350327
0.009791924618184566 -0.109807588160038 -0.04881947487592697
0.10067779570817947 -0.06424044072628021 -0.0011755209416151047
-0.1093495711684227 -0.00445776991546154 -0.07149168848991394
-0.06313495337963104 -0.013430599123239517 -0.3931714594364166
-0.11431079357862473 -0.016592901200056076 0.07819864898920059
-0.003145461203530431 -0.10421507060527802 0.027236636728048325
0.07496412098407745 -0.09544667601585388 0.1385188102722168
-0.07124850153923035 -0.07517039775848389 0.21618779003620148
-0.0843079537153244 0.023942895233631134 -0.1438763439655304
-0.026679037138819695 -0.09849641472101212 -0.13848327100276947
-0.015601304359734058 -0.11543484032154083 -0.1038341075181961
0.07453207671642303 -0.09648089855909348 0.09385424852371216
-0.11024107784032822 0.01319495402276516 0.007121196016669273
0.10832827538251877 -0.061835113912820816 -0.0006092879921197891
-0.0911283865571022 -0.0575815886259079 -0.03235241025686264
-0.0879143700003624 0.038262736052274704 -0.3199334740638733
-0.08119857311248779 -0.05031011998653412 -0.04183143004775047
-0.09445134550333023 -0.054647788405418396 0.005342488177120686
-0.04265936464071274 0.12435287237167358 0.0885707437992096
-0.0876883715391159 0.10116744041442871 -0.00590132549405098
-0.10243210196495056 -0.044491056352853775 -0.06527428328990936
-0.03595670685172081 -0.1075877696275711 0.02664170041680336
-0.10900521278381348 0.06069836765527725 0.13781410455703735
-0.10526764392852783 0.044516172260046005 -0.14666199684143066
0.09156347811222076 -0.08869671821594238 -0.11326640844345093
-0.11857763677835464 -0.022715073078870773 -0.06130027025938034
-0.11426229774951935 0.06620444357395172 0.35456129908561707
-0.1123974472284317 -0.021441932767629623 0.019367879256606102
-0.01720201037824154 -0.1105070635676384 0.06835697591304779
-0.07112382352352142 -0.05218324065208435 -0.29917454719543457
-0.11286209523677826 0.11199134588241577 0.34276360273361206
0.12917731702327728 -0.03242256119847298 -0.09125775843858719
-0.11468640714883804 0.04475347325205803 0.0001979134976863861
-0.1308065950870514 0.06220410391688347 0.1894185096025467
0.05516228824853897 -0.10527120530605316 -0.03966199606657028
0.08887771517038345 -0.09687403589487076 0.20726776123046875
-0.11200497299432755 0.04031404107809067 0.06763383001089096
-0.1224396824836731 0.06002047285437584 0.3475603759288788
-0.12337217479944229 0.06204168498516083 0.3878706395626068
-0.08309397101402283 -0.05766003206372261 -0.02679053135216236
0.0751693993806839 -0.09547843784093857 -0.029788240790367126
0.03366817906498909 -0.1067439466714859 -0.04016493260860443
0.056625545024871826 -0.10182036459445953 0.22149448096752167
-0.11671069264411926 -0.006177326664328575 -0.06679568439722061
-0.06349329650402069 -0.03090093657374382 -0.20228694379329681
0.0875997245311737 -0.08591510355472565 -0.12236660718917847
0.10675656795501709 -0.05709086358547211 0.08344689756631851
0.10656699538230896 -0.06283298134803772 -0.012050524353981018
0.024352554231882095 -0.1140790730714798 -0.03595932945609093
0.0030166590586304665 -0.10791262984275818 0.011763677932322025
0.08348189294338226 -0.07211917638778687 -0.016848016530275345
-0.08487323671579361 -0.05287778750061989 -0.03565468639135361
0.05209728702902794 -0.11066554486751556 -0.053711675107479095
0.09558966755867004 -0.09040122479200363 0.11715739220380783
0.06857404857873917 -0.10656194388866425 -0.22963635623455048
0.012748043984174728 -0.11015651375055313 -0.18263617157936096
-0.08085586130619049 0.10783862322568893 0.08232034742832184
-0.12058435380458832 -0.020454976707696915 0.016696225851774216
-0.10984279960393906 0.05742373317480087 -0.01727968081831932
0.10601328313350677 -0.0739886611700058 0.0025722868740558624
0.1009979322552681 -0.08614140748977661 0.22541406750679016
0.12368261814117432 -0.06858410686254501 -0.0887688398361206
-0.10595722496509552 -0.021244339644908905 0.06532084941864014
-0.10078790038824081 0.06507864594459534 0.17538708448410034
0.006390195339918137 -0.06150762736797333 -0.20895767211914062
0.06452186405658722 -0.09684830904006958 -0.02039642632007599
-0.08387307822704315 -0.05181965231895447 -0.03505796939134598
0.09308931231498718 -0.08087605237960815 -0.011885968036949635
0.0077855451963841915 -0.10324812680482864 -0.24075214564800262
0.012337930500507355 -0.11850208044052124 -0.021392716094851494
-0.08538363873958588 -0.056673064827919006 -0.028632480651140213
-0.1131250262260437 0.052558235824108124 0.18895496428012848
-0.09757416695356369 -0.03834456205368042 -0.06877447664737701
-0.10941500961780548 0.05412515997886658 0.009777682833373547
0.11408061534166336 -0.07826074212789536 -0.09322214871644974
-0.08285188674926758 -0.06351592391729355 0.04567457735538483
-0.06261114776134491 0.12784020602703094 0.4249197840690613
-0.10550828278064728 0.07003843784332275 -0.06100356578826904
-0.09720885008573532 -0.052676863968372345 0.021888624876737595
-0.10899728536605835 -0.027200769633054733 0.011811291798949242
0.0107575673609972 0.06304492056369781 -0.4117467403411865
0.11340142041444778 -0.06285682320594788 -0.0017867153510451317
-0.009123841300606728 -0.11423951387405396 0.32875898480415344
-0.07314279675483704 0.06314810365438461 -0.16925689578056335
-0.06870221346616745 0.12912844121456146 0.2745271623134613
-0.09398423880338669 -0.057080939412117004 -0.02906283363699913
0.12287849187850952 -0.07037585228681564 0.11901740729808807
0.0634094700217247 -0.09650428593158722 0.030912119895219803
-0.11308644711971283 -0.05664261057972908 0.11304091662168503
0.12276807427406311 -0.05120113492012024 0.0007350090891122818
0.10673609375953674 -0.06043693795800209 -0.003206096589565277
-0.11793321371078491 -0.01864149607717991 -0.0528845451772213
-0.07009710371494293 -0.10637757927179337 0.06936997920274734
0.007028818130493164 -0.10122997313737869 -0.2744269371032715
-0.071681447327137 0.11114498227834702 0.2045513391494751
0.06351706385612488 -0.08998704701662064 0.07066142559051514
-0.0904061496257782 -0.05286563187837601 -0.03449609875679016
0.007229506969451904 -0.09507203102111816 -0.19799092411994934
-0.08715781569480896 0.02455265447497368 0.11270291358232498
-0.049769412726163864 -0.10796086490154266 0.10420491546392441
-0.05927756428718567 -0.07025492191314697 -0.2548862099647522
-0.08797220140695572 -0.04266984760761261 -0.12709450721740723
-0.10668974369764328 -0.03538283333182335 0.025078121572732925
-0.05800584703683853 -0.02214057743549347 -0.35573527216911316
0.08436031639575958 -0.07716988027095795 -0.20681512355804443
-0.11892596632242203 0.0590566024184227 0.1384996473789215
-0.07669064402580261 -0.07657428085803986 0.3855658173561096
-0.11597233265638351 -0.0240671057254076 0.1763918101787567
-0.11037321388721466 -0.020507488399744034 0.008627645671367645
-0.12818817794322968 -0.004509670659899712 0.41296887397766113
-0.08276709169149399 0.1085486114025116 -0.10442256927490234
0.07820772379636765 -0.08681553602218628 -0.022492902353405952
-0.07625757902860641 0.13535378873348236 0.3382389545440674
0.06833545118570328 -0.10371068120002747 0.21592946350574493
0.07609540969133377 -0.0853995829820633 -0.025934286415576935
-0.07666235417127609 -0.07102145254611969 0.06669621169567108
-0.10918932408094406 -0.01793096214532852 0.021974660456180573
-0.048520490527153015 0.10426607728004456 -0.15079911053180695
-0.12139009684324265 0.012320549227297306 -0.04351161792874336
-0.1167665347456932 -0.04696671664714813 0.39692991971969604
-0.11320196837186813 0.01604575291275978 0.02355680614709854
-0.11257141083478928 -0.033037103712558746 -0.027453895658254623
0.009015627205371857 -0.1216566264629364 -0.1099761575460434
0.03261423856019974 -0.11920049786567688 -0.03177244961261749
0.0057215504348278046 -0.11311961710453033 0.015818431973457336
-0.022536523640155792 -0.10201211273670197 -0.045285940170288086
-0.0013985149562358856 -0.1131119579076767 -0.11240863800048828
-0.04903491586446762 -0.11264374107122421 0.4172613322734833
-0.11625483632087708 0.043999869376420975 0.13881637156009674
0.10117969661951065 -0.05961895361542702 -0.0033983855973929167
-0.11081156134605408 0.05649171024560928 0.1316036581993103
-0.07237095385789871 0.08618460595607758 -0.25157028436660767
-0.05851738154888153 0.07889065146446228 -0.1600847691297531
-0.11291177570819855 0.052124857902526855 0.015231480821967125
-0.07920767366886139 0.01197630725800991 -0.18031303584575653
-0.07363324612379074 -0.07608155906200409 -0.05755043774843216
-0.08794843405485153 -0.05218580737709999 0.06615664064884186
0.0657861977815628 -0.1050398051738739 -0.04093636944890022
-0.11272604018449783 0.08613882958889008 0.23291835188865662
-0.11393630504608154 0.02799230068922043 0.11898529529571533
-0.07650204002857208 -0.09308597445487976 -0.0026178881525993347
-0.0713784471154213 0.05953194200992584 -0.3457614779472351
-0.05154520273208618 0.13417324423789978 0.11836712062358856
-0.029591867700219154 -0.10023230314254761 0.019014080986380577
-0.08895325660705566 -0.03815391659736633 -0.2588614225387573
-0.11556126177310944 0.010659836232662201 -0.02978324331343174
0.01965087279677391 -0.11560908704996109 -0.05004899203777313
-0.11096541583538055 0.059140585362911224 0.014311738312244415
-0.0852646604180336 -0.06564484536647797 0.0479656457901001
-0.10711484402418137 -0.028971653431653976 -0.04458565264940262
-0.02662334404885769 -0.10672381520271301 0.2725537419319153
0.11010952293872833 -0.05990248918533325 0.0012957528233528137
0.09222783893346786 -0.07590941339731216 -0.020983926951885223
-0.005076756700873375 -0.12150372564792633 0.1568577140569687
0.08652155101299286 -0.09180209040641785 0.1374163180589676
-0.03227020800113678 0.11366476863622665 -0.19556421041488647
-0.10617206990718842 0.08167260885238647 0.2672140300273895
-0.10601680725812912 0.01980172097682953 0.003653591498732567
-0.008606372401118279 -0.02553257718682289 -0.3615225553512573
-0.1042637825012207 -0.04218239337205887 -0.07432691752910614
-0.061877913773059845 0.1288977712392807 -0.046144239604473114
-0.07665771245956421 0.12575404345989227 0.16999365389347076
0.09005945920944214 -0.08312930911779404 -0.018491940572857857
-0.06009328365325928 0.13570444285869598 0.30032244324684143
-0.0939302146434784 -0.06092316657304764 -0.024796145036816597
0.09889046847820282 -0.06039547175168991 -0.01078033447265625
-0.09853389114141464 -0.03995589166879654 0.020728565752506256
-0.105267733335495 -0.039032842963933945 -0.047240130603313446
-0.12064710259437561 0.01902313157916069 0.0032748300582170486
-0.11669470369815826 0.02481943555176258 0.005323173478245735
-0.11037231236696243 -0.0518069714307785 -0.11747045814990997
-0.11157119274139404 -0.020482037216424942 0.020377736538648605
-0.04589341580867767 -0.08989334106445312 0.07118625938892365
0.10702267289161682 -0.07738781720399857 -0.10681562125682831
0.04088027775287628 -0.09966868162155151 -0.010489942505955696
-0.09714264422655106 0.008879335597157478 -0.2508511543273926
-0.10402287542819977 -0.01788901910185814 0.060594215989112854
0.06897380948066711 -0.10800346732139587 0.3984304964542389
-0.10962502658367157 0.011067194864153862 0.08644619584083557
-0.12768380343914032 0.11343330889940262 0.3730255663394928
-0.06884759664535522 0.023725762963294983 0.006589420139789581
-0.08898290991783142 0.05523429811000824 -0.190822035074234
0.042934827506542206 -0.10323441028594971 -0.1305413544178009
-0.05768139287829399 -0.050128109753131866 -0.3196689486503601
-0.11012682318687439 -0.020386669784784317 0.01207580417394638
0.0974242091178894 -0.06848572939634323 -0.011287854984402657
-0.11343047022819519 -0.004511944949626923 -0.008014032617211342
-0.10929825901985168 -0.03334104269742966 0.016788410022854805
-0.08856197446584702 0.11031494289636612 0.31965968012809753
0.06887733936309814 -0.09481469541788101 0.13080893456935883
-0.07758528739213943 0.06420250236988068 0.128255695104599
0.06078672409057617 -0.10167363286018372 -0.16154178977012634
0.08223959803581238 -0.09016388654708862 -0.1255750209093094
0.0331159383058548 -0.1026693731546402 -0.03797750174999237
-0.08512627333402634 0.026136986911296844 -0.18170998990535736
-0.0804431363940239 -0.05900030583143234 -0.027176301926374435
0.06838798522949219 -0.09083167463541031 0.10753889381885529
-0.10846836864948273 0.03794383257627487 0.0016322247684001923
-0.06984113901853561 0.12074340879917145 0.2501518130302429
0.006989477202296257 -0.11891953647136688 0.01161397248506546
-0.12489993125200272 0.06696859002113342 0.2996777892112732
0.039807677268981934 -0.10149404406547546 0.07894580066204071
-0.10428700596094131 -0.023647600784897804 0.039048634469509125
0.10815081000328064 -0.07057707011699677 0.021789733320474625
-0.08049745857715607 -0.052932463586330414 0.06037150323390961
-0.09466952085494995 0.08906496316194534 -0.013330739922821522
-0.08948060870170593 -0.06302763521671295 0.2579176425933838
0.07162883132696152 -0.02834375761449337 -0.2785365581512451
-0.11578528583049774 0.008437749929726124 -0.02643706649541855
-0.0028136614710092545 -0.029526416212320328 -0.4270247519016266
-0.040941886603832245 -0.031420983374118805 -0.0351831391453743
0.1080697551369667 -0.06178298592567444 0.006461277604103088
-0.11432015895843506 -0.011408586986362934 0.055376436561346054
0.1029396504163742 -0.06566483527421951 -0.009216182865202427
-0.1082276701927185 -0.017254427075386047 0.009481148794293404
0.04325618967413902 -0.11538064479827881 0.0167892687022686
0.10790351778268814 -0.05947867035865784 -0.003222470171749592
-0.09598712623119354 0.07469241321086884 0.15636761486530304
0.06801892071962357 -0.09657720476388931 -0.016448918730020523
-0.11612769961357117 0.001223880797624588 -0.09689514338970184
-0.11180661618709564 0.023461144417524338 0.011754889972507954
-0.11955856531858444 0.021748458966612816 0.0923173800110817
-0.02239386737346649 -0.11131734400987625 -0.03378225862979889
0.03448493033647537 -0.10667118430137634 -0.03450395166873932
-0.09666987508535385 -0.055393036454916 0.014633363112807274
-0.08814816921949387 0.09566858410835266 -0.049164388328790665
-0.11916904896497726 0.037335801869630814 0.13217076659202576
-0.09564560651779175 0.07353644073009491 0.2057771235704422
-0.10805384069681168 -0.024997733533382416 0.03123822622001171
-0.05342508479952812 0.12683571875095367 0.1538279801607132
0.09451035410165787 -0.08936649560928345 -0.10437612980604172
-0.10667099058628082 -0.01528753899037838 0.053171053528785706
-0.1057630404829979 0.0698440819978714 -0.12282291799783707
-0.11545947194099426 0.022852672263979912 0.008767550811171532
-0.10320460051298141 -0.062354881316423416 0.3256646990776062
-0.08112476766109467 -0.01046158280223608 -0.15198999643325806
-0.11187475174665451 0.061033785343170166 0.012487992644309998
-0.032829709351062775 -0.10690593719482422 0.34140193462371826
-0.10228374600410461 -0.03841914236545563 -0.05611325055360794
-0.07692156732082367 0.09907713532447815 -0.16613520681858063
0.053956370800733566 -0.09799718856811523 0.004058700054883957
-0.1053309217095375 -0.025575492531061172 0.015362566336989403
0.0413299985229969 -0.12041816860437393 0.35085755586624146
-0.08803963661193848 0.10828157514333725 0.36751195788383484
-0.0939122885465622 -0.05857502296566963 -0.1329711377620697
-0.05615144222974777 0.1289219707250595 0.24937044084072113
0.10472340136766434 -0.06251102685928345 -0.006132869049906731
0.08482522517442703 -0.0794328972697258 -0.014032447710633278
-0.10460549592971802 0.07711674273014069 0.17467990517616272
0.05525235831737518 -0.09788365662097931 0.0004440881311893463
-0.0779656171798706 -0.0698891431093216 -0.11206522583961487
-0.08646230399608612 0.110167495906353 0.07588879764080048
0.05213905870914459 -0.10706481337547302 0.04664299637079239
0.03738964721560478 -0.11555938422679901 0.3737075924873352
0.03614275902509689 -0.08481118083000183 0.09257638454437256
-0.08615892380475998 -0.056725554168224335 -0.028188074007630348
0.07980147004127502 -0.0813329890370369 0.13728149235248566
-0.07138818502426147 0.07482802867889404 -0.3022957146167755
0.10963698476552963 -0.06893214583396912 0.09137405455112457
-0.02039169706404209 -0.11737498641014099 0.051464151591062546
0.03026360645890236 -0.11973731219768524 0.06292032450437546
-0.10882724821567535 -0.0313810259103775 -0.09216068685054779
0.030224330723285675 -0.12006955593824387 -0.000654047355055809
-0.10995279252529144 0.053863391280174255 0.011690729297697544
-0.10405900329351425 -0.02874615043401718 0.01813817024230957
-0.07919695973396301 -0.06956459581851959 0.06390279531478882
-0.11730761080980301 -0.02672487311065197 0.024328960105776787
0.08049589395523071 -0.07847341895103455 -0.0148314805701375
0.06373830884695053 -0.09273339062929153 0.029791364446282387
-0.09864470362663269 -0.043269384652376175 -0.05401583015918732
-0.0981077253818512 -0.06302546709775925 0.07856106758117676
-0.1099085807800293 0.024100109934806824 0.1123180091381073
-0.10960442572832108 0.012980392202734947 0.07951654493808746
0.08487498760223389 -0.09338100999593735 0.11672456562519073
0.07489468157291412 -0.0986156165599823 0.3284492492675781
-0.10943790525197983 0.04184045270085335 -0.05457764118909836
-0.11507529765367508 0.059867013245821 0.2121662199497223
-0.11311131715774536 0.04349900037050247 0.13370148837566376
0.12304481118917465 -0.06386987119913101 -0.32697543501853943
-0.08679978549480438 -0.06636014580726624 -0.035954367369413376
-0.05287898704409599 0.10882822424173355 -0.054180413484573364
-0.07138805091381073 0.005496015772223473 0.045232146978378296
0.10906650125980377 -0.07350417971611023 -0.0497070848941803
-0.0417172908782959 -0.08983297646045685 -0.10994808375835419
-0.1129344254732132 0.05876500904560089 0.2961631715297699
-0.11511168628931046 0.025350496172904968 0.006762735545635223
0.0345003679394722 -0.10978803038597107 -0.12582741677761078
0.08159811049699783 -0.07350455224514008 -0.021995186805725098
0.08439385890960693 -0.08403442800045013 -0.1357915699481964
0.10114103555679321 -0.09246733784675598 0.30620285868644714
0.061829861253499985 -0.09264122694730759 0.042255088686943054
0.09905233234167099 -0.06696537882089615 0.08558421581983566
-0.12137234210968018 0.02615216188132763 0.33551692962646484
-0.026473039761185646 0.04090120643377304 -0.20504288375377655
0.03218432143330574 -0.11979882419109344 -0.03673199936747551
0.03358026593923569 -0.10252213478088379 0.11875651776790619
-0.05663212016224861 -0.051923707127571106 -0.1664573848247528
0.022500602528452873 -0.11464910209178925 -0.10754159092903137
-0.020873045548796654 0.12079732120037079 0.08171696215867996
-0.11263393610715866 0.05484849959611893 0.010500618256628513
-0.025415504351258278 -0.10550524294376373 0.3904414176940918
0.09477702528238297 -0.06807950139045715 -0.026485592126846313
0.08636939525604248 -0.07677316665649414 -0.022022642195224762
0.11478393524885178 -0.07070155441761017 0.03652341663837433
-0.031721677631139755 0.11720822751522064 -0.2475171983242035
-0.09190153330564499 -0.056093305349349976 0.06733833253383636
-0.11291356384754181 -0.023359009996056557 0.014203419908881187
-0.10513055324554443 -0.012680689804255962 0.07103373110294342
-0.11490452289581299 0.03343556076288223 0.060288529843091965
0.07289987057447433 -0.10791342705488205 -0.07482407987117767
-0.08955250680446625 -0.05964803695678711 -0.027205662801861763
0.0968703031539917 -0.06463407725095749 -0.14225909113883972
-0.11059215664863586 0.052449069917201996 0.008739100769162178
-0.0523500069975853 0.10177117586135864 -0.1743471920490265
-0.08301541209220886 -0.06387744098901749 -0.033082738518714905
0.030166180804371834 -0.11434075236320496 -0.1971437931060791
-0.07311615347862244 -0.0745387151837349 -0.031017042696475983
0.07004368305206299 -0.09423189610242844 0.028661442920565605
0.10133462399244308 -0.08478523790836334 0.18519623577594757
-0.05890151858329773 0.09573255479335785 -0.20694786310195923
-0.08929388225078583 0.1008802130818367 0.16268986463546753
0.0340050533413887 -0.10949479043483734 -0.040034156292676926
0.011676076799631119 -0.11993368715047836 0.02039898745715618
-0.11279254406690598 0.006145830266177654 0.08969761431217194
0.036913029849529266 -0.11174435913562775 -0.1256825029850006
-0.047835223376750946 -0.1061517670750618 -0.07471279799938202
0.09995846450328827 -0.052511733025312424 0.055895183235406876
0.063229039311409 -0.09625931084156036 -0.010027172043919563
-0.07696911692619324 -0.061880581080913544 -0.024014689028263092
0.09441046416759491 -0.07915039360523224 -0.00960169080644846
-0.09401978552341461 0.011921830475330353 -0.27249470353126526
-0.005834812298417091 -0.10620670020580292 0.054226577281951904
0.07302149385213852 -0.10499128699302673 0.20935900509357452
0.06792258471250534 -0.10077793896198273 -0.0813787579536438
0.04106830060482025 -0.11145466566085815 -0.1326722502708435
-0.0794614776968956 -0.051893316209316254 -0.13626864552497864
0.1032738909125328 -0.07473848760128021 -0.11212752014398575
