0.09030333906412125 -0.06794115900993347 -0.0149164367467165
-0.053039371967315674 -0.08202154189348221 -0.3370530605316162
0.11381319165229797 -0.05788867920637131 -0.1324714571237564
0.029022935777902603 -0.10130932927131653 -0.13211895525455475
0.049159884452819824 -0.013853468000888824 0.24733953177928925
-0.013105390593409538 -0.04302354156970978 0.28236809372901917
0.036496929824352264 -0.025221411138772964 0.22793981432914734
-0.0951441153883934 0.08177411556243896 0.01709229312837124
0.02213190123438835 -0.08347731828689575 0.108554907143116
-0.0701032429933548 -0.07634034752845764 -0.06597945094108582
0.06103342026472092 0.0035988702438771725 0.2355368286371231
-0.07144872844219208 0.15460267663002014 -0.056837067008018494
-0.09778299182653427 0.06851467490196228 0.1522977650165558
-0.11866763979196548 0.033497825264930725 -0.003018355928361416
0.10327161103487015 -0.056691624224185944 -0.12033945322036743
0.08419518172740936 -0.06894264370203018 -0.04785016179084778
0.06272255629301071 -0.09483307600021362 -0.057591989636421204
0.0542435497045517 -0.07507680356502533 0.02706148661673069
0.09199576824903488 -0.05867606773972511 0.049891624599695206
-0.07525854557752609 0.07871228456497192 0.1678275167942047
-0.0566420741379261 -0.0868339017033577 -0.18320944905281067
0.013205042108893394 -0.04334525018930435 0.3924039900302887
0.042407095432281494 -0.06284768134355545 0.0620218962430954
-0.019776390865445137 0.14659985899925232 0.058608345687389374
-0.12477760016918182 0.026912664994597435 0.0023766448721289635
-0.006560089066624641 -0.07372850179672241 0.13271401822566986
-0.13763289153575897 -0.01611337438225746 -0.16210561990737915
0.11930593848228455 -0.04006187245249748 -0.35509663820266724
-0.09747734665870667 0.0684356540441513 0.037888310849666595
0.004920587874948978 -0.01909419521689415 0.3055088520050049
-0.07829616963863373 0.07631727308034897 0.027577504515647888
0.07589367032051086 -0.05908580124378204 0.0204763226211071
-0.12087294459342957 0.02274346351623535 0.004001399502158165
-0.1266467124223709 0.046246759593486786 -0.1957675814628601
0.011980846524238586 -0.07893694937229156 0.0670488104224205
-0.07524432241916656 0.07941827923059464 0.05793829262256622
0.04582907631993294 -0.07575827836990356 -0.39093315601348877
0.08979221433401108 -0.051276952028274536 0.005571989342570305
0.015116812661290169 -0.1274433135986328 -0.28313881158828735
-0.08510254323482513 0.023586329072713852 -0.334933340549469
-0.08780412375926971 -0.03225291147828102 -0.3339253067970276
0.07262174040079117 -0.09048943221569061 -0.10351267457008362
-0.06873409450054169 0.04547765478491783 0.3673591911792755
0.024404995143413544 -0.06882639229297638 0.09272170066833496
-0.07825477421283722 0.12527762353420258 -0.0007252097129821777
0.09986788034439087 -0.039392005652189255 0.06796199083328247
-0.08193541318178177 0.1326514333486557 0.0609108991920948
-0.1268138289451599 0.035353370010852814 -0.11352945864200592
-0.008208971470594406 0.11047182977199554 0.17202572524547577
-0.07555094361305237 -0.04263336956501007 0.03341557830572128
-0.11804430186748505 0.03782850503921509 -0.0881887823343277
-0.11417874693870544 0.029827291145920753 0.02875855378806591
-0.04989008605480194 -0.08419179916381836 -0.060249146074056625
0.021485112607479095 -0.10183085501194 -0.04069819301366806
-0.11120899021625519 0.054159607738256454 0.0018641706556081772
0.10450925678014755 -0.04789961874485016 0.013774428516626358
0.05055399611592293 -0.06283624470233917 0.07295477390289307
-0.07819149643182755 0.13142962753772736 0.05048640817403793
0.05402568727731705 0.0018503132741898298 0.19402320683002472
0.07223966717720032 -0.0884355679154396 -0.11082661896944046
-0.058959539979696274 0.16092996299266815 -0.10992066562175751
-0.032231081277132034 0.08968275040388107 0.3180532455444336
-0.12031303346157074 0.07057887315750122 -0.12642134726047516
0.12995322048664093 0.005289705470204353 -0.01579829677939415
0.04151071980595589 -0.10160194337368011 -0.0326806902885437
-0.08244524151086807 0.125519260764122 0.10235622525215149
-0.06565763056278229 0.13272300362586975 0.059137485921382904
0.06900573521852493 -0.0686873346567154 -0.39456725120544434
-0.10650242120027542 0.030622698366642 0.04391384869813919
-0.07322265207767487 0.08087868243455887 0.419306218624115
-0.06712094694375992 0.09963607788085938 0.09184464812278748
-0.1005246639251709 0.05353444442152977 0.04492158442735672
0.09475787729024887 -0.06761147826910019 -0.012882820330560207
-0.08312477916479111 0.09322899580001831 0.39839890599250793
0.055594876408576965 -0.007562244310975075 0.325677752494812
-0.08021935820579529 0.12643882632255554 -0.0701339989900589
0.011482641100883484 -0.09001071751117706 -0.13011114299297333
-0.0014751581475138664 0.06763796508312225 -0.46730005741119385
0.06929253786802292 -0.062470268458127975 0.001974295824766159
-0.07467509806156158 -0.06579819321632385 -0.06375554203987122
0.05848914757370949 -0.07794685661792755 -0.004785114899277687
0.017291424795985222 -0.036408305168151855 0.26193857192993164
0.038087621331214905 -0.11175911873579025 -0.30497226119041443
-0.09014897048473358 0.11036116629838943 0.1738394796848297
0.0962066799402237 -0.06454618275165558 -0.05135367065668106
-0.06729194521903992 0.13261987268924713 0.06794223934412003
0.1145981103181839 -0.06840098649263382 -0.021729597821831703
-0.11189983040094376 0.10790427029132843 0.06427737325429916
0.09061074256896973 -0.05347152426838875 -0.2559177875518799
-0.08210210502147675 -0.04589633271098137 0.0531703345477581
0.06642664223909378 -0.07649572193622589 -0.011238682083785534
0.06689556688070297 -0.058943163603544235 0.015363849699497223
-0.027165114879608154 -0.023232918232679367 0.2910655736923218
-0.02008647471666336 -0.03156580775976181 0.3003136217594147
-0.07120498269796371 -0.0876808762550354 -0.08263758569955826
0.09099726378917694 -0.07080791145563126 -0.03402017056941986
-0.06660374999046326 -0.06965720653533936 -0.04113145172595978
-0.09061229228973389 0.12521788477897644 0.057455867528915405
-0.04634973034262657 0.04563165456056595 -0.3866347372531891
0.03907252848148346 -0.10411298274993896 -0.1884973645210266
0.0833103358745575 -0.0646299347281456 -0.02356417290866375
-0.093950055539608 0.051219332963228226 0.09759186953306198
-0.10620151460170746 0.0832502692937851 0.038815177977085114
-0.007139078341424465 -0.0830017626285553 0.019377410411834717
-0.006766233593225479 -0.08961334824562073 0.014919386245310307
-0.0877499133348465 0.008443525061011314 0.07411129027605057
0.029131267219781876 -0.10392283648252487 -0.04722439870238304
0.03922811150550842 -0.09254471957683563 -0.009042037650942802
-0.12338804453611374 0.011915890499949455 -0.08796291798353195
0.09254149347543716 -0.06656768918037415 -0.012735605239868164
0.02310323901474476 -0.10452738404273987 -0.039554595947265625
0.02010064199566841 -0.07062281668186188 0.08049361407756805
-0.0688953623175621 0.1308264434337616 0.07538861036300659
-0.03070145845413208 -0.09557769447565079 -0.1949305534362793
-0.04584180936217308 -0.07925435900688171 -0.06271331757307053
-0.05087657272815704 0.11874198913574219 0.12313764542341232
-0.023387156426906586 -0.06806524842977524 0.06672602146863937
-0.09027945250272751 -0.012857595458626747 0.01579371467232704
-0.09437355399131775 0.1310533732175827 -0.22915808856487274
-0.09252960979938507 0.06343884021043777 0.16232162714004517
0.029247498139739037 -0.060675106942653656 0.11011996865272522
-0.006404466927051544 -0.11840824037790298 -0.23044374585151672
0.04609094187617302 -0.044987402856349945 0.13444088399410248
0.11140726506710052 -0.04963437467813492 -0.08076291531324387
0.09532774984836578 -0.07571762055158615 -0.016145464032888412
-0.05197690427303314 0.12361980974674225 0.0637005940079689
-0.040275633335113525 0.10670588910579681 0.11024820804595947
0.08117161691188812 -0.07082062214612961 -0.05415528267621994
-0.05602160841226578 0.13195210695266724 0.11394335329532623
0.06022311747074127 -0.09107048809528351 -0.0210837684571743
0.00558600015938282 -0.10509894788265228 -0.23190158605575562
-0.11849544197320938 -7.899478077888489e-05 -0.019026856869459152
0.08336721360683441 -0.015297230333089828 0.13555939495563507
0.054576195776462555 -0.09044787287712097 -0.03548026084899902
-0.05176575481891632 -0.07447884976863861 -0.0326027050614357
0.07932881265878677 -0.07334055751562119 -0.03428292274475098
-0.07886479794979095 -0.03989670053124428 0.04233803600072861
-0.08797594159841537 0.007023356854915619 0.18977060914039612
0.09169003367424011 -0.06608212739229202 -0.009528878144919872
0.08193742483854294 -0.06524842977523804 -0.016417548060417175
-0.055195122957229614 0.14832186698913574 -0.14964936673641205
-0.07315139472484589 0.12752461433410645 0.19101060926914215
0.008245730772614479 -0.1075865626335144 -0.2078685164451599
0.027075719088315964 -0.07556037604808807 0.08197780698537827
-0.06943272799253464 0.13166691362857819 -0.2177877426147461
-0.06813675910234451 -0.03997701406478882 0.055101923644542694
0.005968764424324036 -0.04661364108324051 0.2015925496816635
-0.10259386897087097 0.07837535440921783 -0.01332988403737545
-0.0929289311170578 0.06951036304235458 -0.0466376394033432
-0.09860289096832275 0.09209107607603073 0.12654025852680206
-0.03774017095565796 -0.10352901369333267 -0.1918734312057495
-0.09234374761581421 0.09698350727558136 0.20091140270233154
-0.05658595263957977 0.12438689917325974 0.1028304249048233
-0.11874935030937195 0.02519669570028782 -0.18683919310569763
0.10850880295038223 -0.061641715466976166 -0.024270839989185333
-0.04055871441960335 0.13075225055217743 0.04120805859565735
-0.06467723846435547 0.10837773233652115 0.12640541791915894
0.06577026844024658 -0.01790885254740715 0.25547417998313904
-0.1096450611948967 0.059703197330236435 0.23617510497570038
-0.02405329793691635 -0.08710075914859772 0.014259539544582367
-0.10175177454948425 0.062916100025177 0.07200147211551666
0.0830240473151207 -0.06572505831718445 0.01060115359723568
0.057134050875902176 -0.10141074657440186 -0.028174621984362602
0.07624131441116333 -0.06698871403932571 -0.009856289252638817
-0.0269946102052927 -0.08452843129634857 0.015458519570529461
-0.08665753901004791 0.09396678954362869 0.17436768114566803
-0.09417905658483505 0.0667324960231781 -0.050963498651981354
0.07630874216556549 -0.05147841200232506 0.035545092076063156
0.05708646401762962 -0.09263303130865097 -0.031359873712062836
0.07687744498252869 -0.07377441972494125 -0.029150009155273438
-0.11098772287368774 0.11216295510530472 0.0007031448185443878
-0.012462165206670761 0.10171031206846237 0.06910742819309235
0.09112317860126495 -0.042779915034770966 0.055123623460531235
0.03656752035021782 -0.11074402183294296 -0.020643513649702072
-0.024391140788793564 -0.09955057501792908 -0.06575065851211548
-0.007341351360082626 0.06605596840381622 -0.33143237233161926
-0.09993761032819748 0.026334291324019432 0.046733759343624115
-0.0572885163128376 -0.08171500265598297 -0.1367829442024231
0.10085155069828033 -0.056766290217638016 -0.012998371385037899
-0.02984621934592724 -0.10859338939189911 -0.08130354434251785
0.09239169955253601 -0.06781981885433197 -0.013504231348633766
0.08770456910133362 -0.07056345790624619 -0.011312266811728477
0.11726213991641998 -0.043313853442668915 -0.020007526502013206
0.03552625700831413 -0.0977083146572113 -0.040528323501348495
-0.08180566877126694 0.12884514033794403 0.058441806584596634
0.0657036155462265 -0.09764877706766129 -0.03287747874855995
-0.005373269319534302 -0.10510013997554779 -0.14388322830200195
-0.09663962572813034 0.10045095533132553 0.16411447525024414
-0.06399373710155487 0.1374894380569458 0.06586730480194092
-0.09885790944099426 0.061475880444049835 0.10031275451183319
-0.07654263824224472 -0.06254097819328308 -0.044287458062171936
0.02414892427623272 -0.09537850320339203 -0.03582008555531502
0.041381459683179855 0.005430145654827356 0.30880314111709595
-0.04490717127919197 0.0011061802506446838 0.283029705286026
-0.05400920286774635 -0.08286592364311218 -0.05364362895488739
-0.038740124553442 0.059071168303489685 0.1634313315153122
-0.05266385152935982 0.10905086249113083 0.15131334960460663
-0.10115371644496918 -0.017535440623760223 0.0390799343585968
0.0883808583021164 -0.06256453692913055 -0.2969818711280823
0.0602942630648613 -0.008381729014217854 0.2544012665748596
0.12112946063280106 -0.05504009872674942 -0.08496071398258209
-0.10288460552692413 0.05863887071609497 0.14774034917354584
-0.05776925012469292 -0.07325360924005508 -0.03350771218538284
0.12210360914468765 -0.0525234192609787 -0.02782631665468216
-0.08515853434801102 0.0752435028553009 0.16650846600532532
0.09108990430831909 -0.06033417955040932 -0.025255870074033737
-0.12227940559387207 0.015036072582006454 -0.07209350168704987
-0.1085958406329155 0.04699990898370743 0.0347549207508564
-0.11282677203416824 0.02369408681988716 -0.05607135593891144
-0.09766905009746552 0.09748417884111404 0.04839722067117691
-0.04893319308757782 -0.0974147766828537 -0.11202210932970047
-0.0573936328291893 -0.011412691324949265 0.3501929044723511
-0.12042604386806488 0.05712878704071045 -0.13440395891666412
-0.008200075477361679 -0.09327384829521179 0.008233737200498581
0.0664132684469223 -0.07816633582115173 0.018282730132341385
-0.034332554787397385 0.041846029460430145 -0.30750057101249695
-0.0396089032292366 -0.06970629841089249 0.07792344689369202
-0.06409379839897156 0.08869142830371857 0.15642790496349335
0.013275425881147385 -0.09626464545726776 0.017533209174871445
-0.0071854908019304276 -0.1021215096116066 -0.06527332961559296
-0.09570879489183426 0.07811607420444489 0.1649227887392044
0.05779227614402771 -0.0736614316701889 -0.0029960889369249344
-0.0807139202952385 0.10696607828140259 0.11490415781736374
-0.08993305265903473 0.07433275133371353 0.18812313675880432
-0.0056560467928647995 -0.09746825695037842 0.004738413728773594
-0.06055735796689987 0.14166396856307983 0.07460527867078781
-0.06658223271369934 0.14000244438648224 -0.3084942102432251
-0.07149145007133484 -0.0420561283826828 0.047219134867191315
0.08455665409564972 -0.09025093168020248 -0.2596384882926941
-0.0592331700026989 0.062456775456666946 0.14998026192188263
-0.11911624670028687 0.012137806043028831 -0.02274942211806774
-0.0446750670671463 -0.08796258270740509 -0.2866895794868469
0.09374069422483444 -0.062454864382743835 -0.016499148681759834
0.09182743728160858 -0.07142581045627594 -0.01538888830691576
0.08211750537157059 -0.0673493891954422 0.029700223356485367
0.07023677974939346 -0.06281043589115143 0.054414838552474976
-0.08467476069927216 0.06512949615716934 0.13372959196567535
-0.09562987089157104 0.034132424741983414 0.03245647996664047
-0.06210916489362717 0.13796894252300262 0.05515705794095993
-0.032112084329128265 -0.08606807887554169 -0.04529412090778351
-0.06519429385662079 0.13180308043956757 0.09632451087236404
-0.020396171137690544 0.10946265608072281 0.23563049733638763
0.08375939726829529 -0.06910458207130432 -0.006672431714832783
-0.060818374156951904 -0.07532928884029388 -0.06023821979761124
-0.07402262091636658 0.11034434288740158 0.0882953479886055
-0.002245679497718811 -0.031541984528303146 0.21652624011039734
-0.07491613924503326 0.1409352570772171 0.06496395915746689
0.06586910784244537 -0.07441788911819458 0.029256034642457962
0.09476375579833984 -0.04733055830001831 0.012401330284774303
-0.10301383584737778 0.09381507337093353 -0.02868589572608471
-0.12195934355258942 0.05623963102698326 0.004775325767695904
-0.005493398755788803 -0.050036877393722534 -0.3490697741508484
-0.10540696978569031 0.03939751163125038 0.08513085544109344
-0.016888881102204323 -0.08729081600904465 0.033241309225559235
-0.08690837025642395 0.1166427880525589 0.15747377276420593
-0.036540452390909195 0.13284122943878174 0.14528514444828033
-0.0945228710770607 0.061278752982616425 0.1310141384601593
0.03854229673743248 -0.017867926508188248 0.18719887733459473
-0.09568680822849274 0.09492163360118866 0.16517844796180725
0.04453972727060318 -0.0520806722342968 0.13477373123168945
0.1465027928352356 0.0016542193479835987 -0.08244775980710983
-0.11166936904191971 0.09428301453590393 -0.32690563797950745
-0.06485859304666519 -0.02270510047674179 0.1399204283952713
0.04418165981769562 -0.09570447355508804 -0.041082192212343216
-0.09862722456455231 0.09952560812234879 0.03181326016783714
0.04344199597835541 -0.06558585166931152 0.05982144922018051
-0.06426382064819336 0.0872749537229538 0.09911762177944183
-0.0791090726852417 -0.056001268327236176 -0.016190001741051674
-0.09881322830915451 -0.056823648512363434 -0.07390053570270538
-0.10956840962171555 0.11433329433202744 -0.001518063247203827
-0.10136625170707703 0.040321022272109985 0.21382860839366913
0.01191403716802597 -0.1098812073469162 -0.07806747406721115
-0.11546309292316437 0.038183338940143585 0.028378449380397797
-0.020859427750110626 0.03398919478058815 -0.36388829350471497
-0.007419269531965256 -0.08899164199829102 0.019489670172333717
-0.011481117457151413 -0.09111574292182922 0.01282401941716671
0.0053816670551896095 -0.10103466361761093 -0.13314436376094818
-0.10214799642562866 0.10173892229795456 0.116758793592453
0.04960944503545761 -0.0741497129201889 0.028814420104026794
-0.07850457727909088 0.056476857513189316 0.15898162126541138
-0.12406059354543686 0.025372358039021492 0.002074803225696087
-0.11186140775680542 -0.04824556037783623 -0.22400788962841034
0.05484540015459061 -0.01608525589108467 0.4212692975997925
-0.058521199971437454 0.0007284600287675858 0.325124591588974
0.04131588339805603 -0.024274049326777458 0.23101219534873962
0.10778230428695679 -0.059213731437921524 -0.33259317278862
0.05549801513552666 -0.08733456581830978 0.014378081075847149
-0.13068868219852448 -0.008782223798334599 -0.15707771480083466
-0.050719961524009705 -0.03819088265299797 0.08530285954475403
0.08422612398862839 -0.06607302278280258 0.0059295278042554855
-0.07050686329603195 0.13566359877586365 0.04151085764169693
0.13409002125263214 -0.036034636199474335 -0.15049365162849426
-0.0127804484218359 -0.04628000408411026 0.10612380504608154
-0.060132499784231186 0.15175020694732666 0.026766866445541382
0.11683144420385361 -0.051407404243946075 -0.034289222210645676
0.04610646888613701 -0.08314149081707001 0.003662661649286747
0.08769891411066055 -0.07056748867034912 -0.04955213516950607
0.0371745266020298 -0.02477729320526123 0.13447971642017365
0.015765085816383362 -0.09812431782484055 -0.04301145300269127
-0.1102176308631897 0.08754688501358032 0.008496664464473724
0.04488770291209221 -0.08677243441343307 -0.014399426989257336
0.016360994428396225 -0.10056757926940918 -0.08067557960748672
0.07796306163072586 -0.0631997138261795 0.047261327505111694
0.13625864684581757 -0.012578126043081284 -0.22119127213954926
-0.07745232433080673 0.05178430676460266 -0.26771804690361023
-0.06117665022611618 -0.07712167501449585 -0.04832229018211365
0.09355363994836807 -0.06308645755052567 -0.01765216514468193
-0.11953157186508179 0.023740166798233986 -0.013748993165791035
-0.11517097800970078 0.05683159455657005 0.06399044394493103
0.007514054886996746 -0.026717782020568848 0.3971685767173767
-0.06421315670013428 0.13098053634166718 0.07155094295740128
0.08962588012218475 -0.06733615696430206 -0.01285266038030386
0.04435371980071068 0.0674891248345375 -0.37876781821250916
0.08531118184328079 -0.07499822229146957 -0.04514263570308685
0.0634220540523529 -0.06486735492944717 -0.024134906008839607
-0.09416463226079941 -0.06625854223966599 -0.08411646634340286
0.08618424832820892 -0.06390220671892166 -0.014374093152582645
0.049451906234025955 -0.07658229768276215 0.030146069824695587
0.07879416644573212 -0.05558885633945465 0.03092060796916485
-0.12746359407901764 0.03550087288022041 -0.010920243337750435
0.015146352350711823 -0.08070728182792664 0.08437702059745789
0.07389799505472183 -0.08118480443954468 -0.1422637701034546
-0.03357986733317375 -0.03137622028589249 0.3950815796852112
0.020764000713825226 -0.08921156823635101 0.06063976138830185
0.08265504240989685 -0.058750592172145844 0.004057222977280617
0.0864090844988823 -0.055812638252973557 -0.009745906107127666
0.07925190031528473 -0.04703439772129059 0.06355120241641998
-0.09650475531816483 0.07034297287464142 0.15661269426345825
-0.047622550278902054 0.12051422894001007 -0.25276029109954834
0.08012009412050247 -0.05908740311861038 -0.012139659374952316
-0.0964563637971878 -0.05833037942647934 -0.27024945616722107
-0.03660881891846657 0.12702880799770355 0.04245635122060776
0.11413974314928055 -0.062073856592178345 -0.013670532032847404
0.011927969753742218 -0.10147751122713089 -0.2262507975101471
0.09336692094802856 -0.06708601117134094 -0.022464554756879807
-0.09782330691814423 0.04700766131281853 -0.18637648224830627
0.1207394152879715 -0.053339552134275436 -0.046165961772203445
0.08844131231307983 -0.06974910944700241 -0.02036895602941513
-0.046171385794878006 0.15474463999271393 0.13961094617843628
0.08809702098369598 -0.06031069904565811 -0.024720776826143265
-0.09288223087787628 0.09094829112291336 0.2064422070980072
0.06463705003261566 -0.06657551229000092 0.025174306705594063
-0.10251565277576447 0.07808014005422592 0.15132492780685425
0.045263368636369705 -0.005592556670308113 0.38679927587509155
0.059355445206165314 -0.07568565011024475 0.008539514616131783
0.11800577491521835 -0.04563722014427185 -0.06519334018230438
-0.11165018379688263 0.0509028285741806 0.1041325032711029
0.06677065789699554 -0.05295780301094055 0.02223745547235012
-0.07940509170293808 0.06882017850875854 0.16575048863887787
-0.04257320612668991 -0.09456980228424072 -0.08033959567546844
0.031189637258648872 -0.08446595072746277 0.02039523795247078
0.0682281032204628 -0.07822179794311523 -0.01751215197145939
0.10540109872817993 -0.06289133429527283 -0.29616108536720276
-0.1219208613038063 0.019791295751929283 -0.3467389643192291
-0.0951145812869072 0.0644403025507927 0.13457977771759033
-0.08582812547683716 -0.06090910732746124 -0.046020619571208954
-0.11148231476545334 -0.028483623638749123 -0.1836884617805481
0.011423125863075256 -0.04618033021688461 -0.4062100052833557
-0.051927048712968826 -0.10917074978351593 -0.21218270063400269
-0.1006169468164444 0.036015454679727554 0.1788189858198166
-0.10142262279987335 0.1172715574502945 0.1203443706035614
-0.11298704147338867 0.048205919563770294 0.03523124381899834
0.09311211854219437 -0.07666555047035217 -0.015633948147296906
-0.12437912076711655 0.08408064395189285 0.011242233216762543
-0.06766870617866516 -0.03950057923793793 0.028814304620027542
-0.004626847803592682 -0.09734880924224854 0.004590312018990517
-0.04042580723762512 0.10906124114990234 0.1093544065952301
0.026396101340651512 -0.1052984967827797 -0.1377030909061432
0.1418539136648178 -0.04305611550807953 -0.011412834748625755
0.08770258724689484 -0.07059745490550995 -0.01636393740773201
0.012579962611198425 -0.02210082672536373 0.35779666900634766
-0.03425219655036926 -0.08943194895982742 -0.056814126670360565
0.10864799469709396 -0.061161063611507416 -0.23561227321624756
0.1140463799238205 -0.06024003028869629 -0.028775766491889954
0.08763447403907776 -0.06911498308181763 -0.01973135955631733
-0.054447241127491 0.15674300491809845 -0.03331613540649414
-0.1306988000869751 0.06188910827040672 -0.013574165292084217
-0.08038581907749176 0.07824745774269104 0.0674174502491951
-0.12603478133678436 0.027481459081172943 -0.15563996136188507
-0.05627291649580002 -0.019082404673099518 0.08753332495689392
0.09345512837171555 -0.06699968874454498 -0.012601673603057861
-0.11136947572231293 -0.045819129794836044 -0.07909561693668365
0.04566936567425728 -0.08180074393749237 0.013194095343351364
-0.0955757424235344 0.02549850195646286 0.06099092587828636
0.0929206907749176 -0.0404435358941555 0.0426168292760849
-0.06637759506702423 -0.057647157460451126 0.07448404282331467
0.03664888069033623 -0.09809941053390503 -0.18692722916603088
-0.07333073019981384 -0.032887257635593414 0.047812849283218384
-0.07427113503217697 0.02951434999704361 -0.28030940890312195
0.013204356655478477 -0.1020159125328064 -0.1995765119791031
0.07082536816596985 -0.07586919516324997 0.03695465624332428
-0.06536126136779785 -0.0887979194521904 -0.19591251015663147
0.06018577143549919 -0.09749265760183334 -0.20232369005680084
0.07775577902793884 -0.044582217931747437 0.006445704028010368
-0.10763595998287201 0.11143933236598969 -0.07261050492525101
-0.07276375591754913 0.002814589999616146 0.3920820951461792
0.023069683462381363 -0.06967362761497498 0.058991655707359314
-0.10824685543775558 -0.031520090997219086 -0.06434912979602814
-0.1094607412815094 0.07767528295516968 -0.016092099249362946
0.080411396920681 -0.059647515416145325 -0.009210914373397827
-0.06543922424316406 0.12774254381656647 0.0729835107922554
0.07091415673494339 -0.10231053084135056 -0.24689197540283203
0.0902794674038887 -0.07823750376701355 -0.10342349112033844
-0.10325481742620468 0.04395129159092903 -0.24698661267757416
-0.0743805468082428 0.1380194127559662 0.06470482051372528
0.10116592794656754 -0.03018287383019924 -0.3111884593963623
-0.03207533806562424 -0.10568545758724213 -0.12099489569664001
-0.10586704313755035 0.08798971027135849 0.1814981997013092
0.049288131296634674 -0.09511017799377441 -0.046582214534282684
-0.12048503756523132 0.061279743909835815 0.016719037666916847
-0.1122208833694458 0.05030055344104767 0.07541444152593613
-0.06829746067523956 -0.0724630057811737 -0.131585955619812
0.01281755045056343 -0.0589013546705246 0.10746470093727112
0.07737182825803757 -0.06716130673885345 -0.01431292574852705
-0.02341829240322113 -0.1022728830575943 -0.06214084476232529
-0.07678791135549545 0.10355660319328308 0.18699245154857635
0.08045041561126709 -0.0825105756521225 -0.15022900700569153
0.08965982496738434 -0.07437390089035034 -0.023651976138353348
-0.0909535214304924 -0.008874675258994102 0.03647764027118683
-0.04783672094345093 -0.0845513790845871 -0.026684004813432693
-0.10170771181583405 0.013213910162448883 0.12456545978784561
0.08655470609664917 -0.0643843561410904 -0.01921449601650238
-0.106157086789608 0.05420166254043579 0.09231903403997421
0.08477229624986649 -0.0757160633802414 -0.03506794571876526
-0.1338665783405304 0.06438702344894409 -0.2457958608865738
0.09967884421348572 -0.07385183870792389 -0.014826684258878231
-0.12896493077278137 0.04471825808286667 -0.021932033821940422
-0.08183934539556503 -0.05486130714416504 -0.06669338047504425
0.01569199562072754 -0.01772416941821575 0.2390541434288025
0.04868888854980469 -0.061091139912605286 -0.3079775273799896
0.03274683281779289 -0.012827733531594276 0.330005019903183
-0.000796416774392128 -0.09242985397577286 0.009415015578269958
0.04452241212129593 -0.02823314070701599 -0.5038564205169678
0.009546411223709583 -0.09545431286096573 0.016947045922279358
-0.020185990259051323 -0.04575231671333313 0.1699838489294052
0.08616315573453903 -0.07227432727813721 -0.010492720641195774
-0.025449631735682487 -0.08163982629776001 0.031208913773298264
-0.13049174845218658 -0.035507895052433014 -0.12056692689657211
-0.05352697893977165 0.14295609295368195 0.07932878285646439
0.08835624903440475 -0.0830777958035469 -0.14544282853603363
0.0878557488322258 -0.058689676225185394 0.003113655373454094
0.0005861933459527791 -0.09823788702487946 -0.0008590100333094597
-0.12917882204055786 0.07153979688882828 -0.24056263267993927
-0.06778479367494583 0.05969041585922241 0.18617945909500122
-0.0251892302185297 -0.10179658979177475 -0.09251570701599121
-0.07634627819061279 -0.0749548003077507 -0.10596081614494324
-0.02563009411096573 -0.0955841988325119 -0.16951915621757507
0.051137544214725494 -0.06890041381120682 0.10058866441249847
-0.10137668251991272 0.03998618572950363 0.08377291262149811
-0.12325845658779144 -0.014432879164814949 -0.17904290556907654
0.09347095340490341 -0.06015627086162567 -0.028058527037501335
0.09407276660203934 -0.07381889224052429 -0.06985098868608475
-0.0995771735906601 0.07011182606220245 0.13171926140785217
-0.10278704017400742 0.11779976636171341 0.04839672893285751
-0.08332975953817368 0.12479585409164429 -0.05034390836954117
-0.0484054833650589 -0.08718180656433105 -0.053031813353300095
0.08955211937427521 -0.06771014630794525 -0.011990154162049294
-0.07821548730134964 0.05168155953288078 0.09659624099731445
-0.09801243990659714 0.07611396908760071 0.19716764986515045
-0.04919622093439102 -0.09318394213914871 -0.031680330634117126
0.10348135232925415 -0.0595427080988884 -0.023920029401779175
-0.11711538583040237 0.016161154955625534 0.00021453062072396278
-0.033061496913433075 -0.010090338066220284 0.23005205392837524
-0.1075035035610199 0.13016965985298157 -0.013491658493876457
-0.1015571653842926 0.08588282763957977 0.04095693677663803
0.09628844261169434 -0.0698782429099083 -0.01831396110355854
-0.07980286329984665 0.0481114387512207 0.34053707122802734
0.09262118488550186 -0.06657476723194122 -0.018782999366521835
-0.07083145529031754 0.009658921509981155 -0.3143361508846283
-0.07619364559650421 0.06618133932352066 -0.3039601445198059
-0.05442817509174347 0.0713995173573494 0.09110043197870255
0.08865692466497421 -0.060981933027505875 0.012324413284659386
-0.045646749436855316 -0.10255274921655655 -0.12504234910011292
-0.027342867106199265 -0.03460739925503731 0.2332511693239212
-0.07237748801708221 0.12727543711662292 0.07415671646595001
-0.08807310461997986 -0.006140616722404957 0.048007555305957794
0.03543859347701073 -0.07091652601957321 0.06422486156225204
0.04689841717481613 -0.10097961127758026 -0.08245359361171722
-0.07265247404575348 0.12639456987380981 0.030598798766732216
-0.12131214141845703 0.011946851387619972 -0.05192818492650986
0.09668396413326263 -0.06983133405447006 -0.23402754962444305
0.0232331994920969 -0.050904057919979095 0.16400256752967834
0.0429157093167305 -0.08779579401016235 0.012642577290534973
0.04649262875318527 -0.0889105275273323 -0.023695841431617737
-0.014753509312868118 -0.09147468209266663 0.014668604359030724
0.0832909494638443 -0.07507137954235077 -0.05259618163108826
-0.04217668995261192 -0.04138214886188507 0.06501815468072891
-0.037551287561655045 0.08600875735282898 -0.24260368943214417
0.036612123250961304 -0.08025328069925308 0.061718568205833435
0.03898926451802254 -0.0074314940720796585 0.2616257071495056
-0.019684787839651108 -0.04901615157723427 0.14892998337745667
0.08166641741991043 -0.06544379144906998 -0.027040032669901848
-0.03517954796552658 0.08700165897607803 0.19156870245933533
-0.01853775978088379 -0.11356452107429504 -0.3798203468322754
0.06027697026729584 -0.08638464659452438 -0.029674481600522995
0.09566035866737366 -0.0665450319647789 -0.023225581273436546
0.0579829141497612 -0.08203112334012985 -0.2713918685913086
0.07719686627388 -0.07041287422180176 -0.03990234062075615
0.04436524212360382 -0.09110896289348602 -0.018379047513008118
0.019447194412350655 -0.08700071275234222 0.02712143212556839
-0.10089924186468124 -0.00030731409788131714 0.000750930979847908
0.03356882557272911 -0.09994789958000183 -0.10746733844280243
0.006087200716137886 -0.09619147330522537 -0.07243406027555466
0.052675265818834305 -0.08998498320579529 -0.16202087700366974
-0.05231968313455582 -0.08778195083141327 -0.06905876845121384
-0.07032077014446259 0.13101093471050262 0.07870210707187653
-0.10215413570404053 0.09591461718082428 0.13541248440742493
-0.03737632930278778 -0.04864458739757538 0.15290580689907074
-0.04534352198243141 -0.07778791338205338 -0.03997352719306946
-0.10362274944782257 0.09168822318315506 0.028320593759417534
-0.1138698160648346 0.05520928278565407 0.03730778768658638
-0.001623040996491909 -0.08083287626504898 0.029471902176737785
0.04721581190824509 -0.018643392249941826 0.3564823269844055
-0.09530743956565857 0.07611660659313202 0.17313921451568604
0.022646557539701462 -0.09522216767072678 -0.027263734489679337
-0.061128463596105576 -0.022393416613340378 0.08957535773515701
-0.0911705270409584 0.0774037167429924 0.12488868832588196
-0.09044452011585236 0.11822295188903809 0.19662494957447052
0.0945030152797699 -0.06911695748567581 -0.010434240102767944
-0.1300942301750183 -0.021098747849464417 -0.31018099188804626
-0.02311812900006771 0.10073255002498627 0.2973320484161377
0.13576313853263855 -0.0320744514465332 -0.1449691504240036
-0.07263906300067902 0.11800088733434677 0.1435222625732422
-0.1267279088497162 0.07368411123752594 -0.0359150767326355
-0.11015915125608444 0.020090432837605476 0.05225338786840439
0.05385585501790047 -0.008252337574958801 0.4112034738063812
0.016220256686210632 -0.09653253853321075 0.01942925527691841
-0.0853624939918518 0.08046579360961914 0.04981937259435654
0.01636025868356228 -0.11092658340930939 -0.16469258069992065
-0.07169448584318161 -0.033418141305446625 0.017762698233127594
-0.124503493309021 0.06456306576728821 -0.0007189293392002583
-0.09666934609413147 0.08078844845294952 0.1920202076435089
-0.05542074888944626 0.06628459692001343 0.28390708565711975
0.06971912086009979 -0.08458765596151352 -0.08120854198932648
-0.09080544114112854 -0.03245449811220169 -0.0021829805336892605
0.06312502175569534 -0.07898341119289398 0.0056744348257780075
0.0878460556268692 -0.07569234073162079 -0.012205583043396473
0.04196102172136307 -0.09486941993236542 -0.0057912468910217285
-0.11704806983470917 0.05449974536895752 0.01189389917999506
-0.09711431711912155 -0.011009300127625465 -0.03546503558754921
0.041893959045410156 -0.06904655694961548 0.039192747324705124
0.07687991112470627 -0.06825289875268936 0.022655064240098
0.014598770998418331 -0.08352096378803253 0.11274150758981705
0.07886965572834015 -0.06183566153049469 -0.02027786150574684
-0.0805785059928894 0.12070266157388687 -0.35607051849365234
-0.11582235991954803 0.05990570783615112 0.03367272764444351
0.01191611960530281 -0.09239860624074936 -0.07779394090175629
0.03663114830851555 -0.059366144239902496 0.15122011303901672
-0.04292626678943634 0.06853414326906204 0.29424357414245605
0.13602223992347717 -0.021626753732562065 -0.05460177734494209
0.06159568205475807 -0.09375165402889252 -0.034929219633340836
0.09379561990499496 -0.06128391996026039 -0.023372815921902657
-0.10142424702644348 0.06233194097876549 0.08081197738647461
-0.05551036074757576 0.07042685151100159 0.045003991574048996
-0.04683047533035278 0.14236372709274292 0.0635291188955307
-0.006941027939319611 -0.02398821711540222 0.4258796274662018
-0.042582713067531586 0.08844665437936783 0.2736474275588989
-0.0926271378993988 0.07168176770210266 0.17832332849502563
-0.06831157952547073 -0.05493117496371269 0.05220525711774826
0.04401618242263794 -0.08270856738090515 0.018805133178830147
-0.06338255852460861 -0.0789543017745018 -0.06146857142448425
-0.10047152638435364 -0.05197489634156227 -0.05072186142206192
-0.11138152331113815 0.06402939558029175 -0.024062704294919968
-0.1263539344072342 0.041049059480428696 0.0268862321972847
-0.05397474765777588 0.0031991321593523026 0.31789612770080566
0.10673248767852783 -0.06596348434686661 -0.16117709875106812
-0.11604130268096924 0.05850867182016373 0.05086024850606918
-0.03035992942750454 0.11574330925941467 0.02075747586786747
-0.013445978984236717 -0.1058591827750206 -0.10080457478761673
-0.018513694405555725 -0.08447755873203278 0.012889517471194267
0.08397047221660614 -0.06690521538257599 -0.04210552200675011
-0.08939782530069351 0.08442956209182739 0.035878945142030716
-0.05783592909574509 -0.08926157653331757 -0.14583083987236023
0.011988851241767406 -0.09311670064926147 0.05425010621547699
-0.09709879010915756 0.06871160864830017 0.18162301182746887
0.020082462579011917 -0.08505114167928696 0.003459536237642169
-0.062151528894901276 0.027725014835596085 -0.38674432039260864
-0.07852256298065186 -0.07834626734256744 -0.24930940568447113
-0.12750422954559326 0.06585753709077835 -0.2247563749551773
-0.11264050006866455 0.025930490344762802 0.07108841091394424
-0.07502967119216919 0.057541146874427795 0.23115649819374084
-0.12295220792293549 0.04898727312684059 -0.0008474346250295639
0.07902510464191437 -0.05937478691339493 -0.020840570330619812
-0.10020668059587479 0.02980697900056839 -0.004854772239923477
-0.09249003231525421 0.057711124420166016 0.05174650996923447
-0.11469611525535583 0.09676377475261688 -0.05969184264540672
0.10268085449934006 -0.060080237686634064 -0.09291552007198334
-0.005239878781139851 -0.10750216245651245 -0.003398444503545761
-0.03360794484615326 -0.0705217644572258 -0.02125895768404007
-0.09873601794242859 0.12852278351783752 0.037507809698581696
0.0871616005897522 -0.0676731988787651 -0.010170934721827507
-0.05742562562227249 -0.08337315171957016 -0.05109453201293945
-0.06404153257608414 -0.09109622985124588 -0.10036177188158035
0.1313786506652832 -0.03937727212905884 -0.02072957158088684
0.061262331902980804 -0.09770546108484268 -0.0959489494562149
0.02347896620631218 -0.08175738155841827 0.03689498454332352
-0.10820753872394562 0.08418833464384079 0.1628478765487671
-0.015527359209954739 0.09384210407733917 0.35429176688194275
-0.0791221410036087 -0.06742464005947113 -0.06595297902822495
-0.069124735891819 0.05361568555235863 0.2688191533088684
0.006470295134931803 -0.050743814557790756 0.19284319877624512
-0.07396696507930756 -0.07548253238201141 -0.08722295612096786
0.03114435076713562 -0.1113438829779625 -0.0626361072063446
0.059402529150247574 -0.027530424296855927 0.14703121781349182
-0.11386717855930328 0.03949211537837982 0.04540974274277687
-0.01370920892804861 -0.074462890625 0.08715656399726868
-0.01403784565627575 -0.09672726690769196 -0.2271917760372162
-0.05889713019132614 -0.04594866931438446 0.055612508207559586
-0.07720405608415604 -0.0852089449763298 -0.12280356138944626
-0.12463480234146118 0.03762656822800636 -0.07475456595420837
0.08611446619033813 -0.022571269422769547 0.037017498165369034
0.05375141277909279 -0.06547344475984573 -0.356034517288208
-0.08900181949138641 0.08295173197984695 0.1094321757555008
-0.014328043907880783 -0.121991366147995 -0.16123396158218384
0.0005758088082075119 -0.08830125629901886 0.03410368785262108
-0.08040763437747955 0.10733037441968918 0.2333269864320755
-0.12571489810943604 0.05717046558856964 -0.04326407238841057
-0.09928467869758606 0.14527063071727753 -0.15628840029239655
0.04623708128929138 -0.07543469965457916 0.009657544083893299
0.03547586500644684 -0.10660597681999207 -0.20403273403644562
-0.09695062041282654 -0.021307121962308884 0.031598322093486786
0.1128319799900055 -0.05539102107286453 -0.012142614461481571
0.09172484278678894 -0.06936927139759064 -0.019227126613259315
0.0591282956302166 -0.08980128169059753 -0.028828423470258713
-0.09713246673345566 -0.04744809493422508 -0.04359440505504608
-0.09619821608066559 0.06730872392654419 0.15751975774765015
0.0538727268576622 -0.04604316130280495 0.1664305031299591
0.039835959672927856 -0.10043132305145264 -0.023339848965406418
-0.07206393778324127 -0.08085523545742035 -0.2511521279811859
-0.11920159310102463 0.012353681027889252 -0.12582990527153015
-0.10479496419429779 0.08333900570869446 0.1853136569261551
-0.04838452488183975 0.044690683484077454 -0.26465368270874023
0.08903633058071136 -0.0350186750292778 0.037117090076208115
-0.0058247800916433334 -0.10699208080768585 -0.06112036854028702
-0.09436430037021637 0.12494833022356033 -0.023959992453455925
-0.09964288771152496 0.12832441926002502 0.07842430472373962
-0.06827490031719208 0.13144662976264954 0.07059336453676224
-0.10270122438669205 -0.0595962218940258 -0.2250659167766571
-0.010730715468525887 -0.026890192180871964 0.3274599611759186
-0.07940896600484848 -0.03750460594892502 0.03481491655111313
-0.10296288877725601 0.04746098443865776 0.03867579251527786
-0.10603567957878113 0.08132360875606537 -0.003568946849554777
0.0008804947137832642 0.09801770001649857 0.11268966645002365
0.1063704788684845 -0.05355209484696388 -0.2397632747888565
-0.07945054024457932 0.12356767058372498 0.020749200135469437
0.03523442894220352 -0.10759153217077255 -0.33673354983329773
-0.10464423149824142 0.08283568173646927 -0.09720088541507721
-0.09778329730033875 -0.024900704622268677 0.020099550485610962
-0.10494548082351685 0.09996049851179123 0.012874767184257507
-0.1263834536075592 0.007180782034993172 -0.08746396005153656
-0.08735772967338562 0.011411369778215885 0.1893087923526764
-0.016363689675927162 -0.09718342125415802 0.012405328452587128
0.08862599730491638 -0.06699144095182419 0.01208440400660038
-0.10223038494586945 0.062249377369880676 0.0880565196275711
0.07413476705551147 -0.08235668390989304 -0.12116891145706177
-0.08920758217573166 0.0619448758661747 0.4320199489593506
-0.06769605726003647 -0.02803022973239422 0.10872893035411835
-0.07106290757656097 0.1576615422964096 -0.18124032020568848
0.12198178470134735 -0.019154105335474014 0.04163411632180214
-0.08837655186653137 0.11928114295005798 0.15133419632911682
0.07532362639904022 -0.06727126985788345 -0.03763642534613609
-0.11455853283405304 0.020433835685253143 0.005587913561612368
-0.05796937644481659 0.1477312445640564 -0.22829782962799072
0.003866090439260006 -0.11102540045976639 -0.033701397478580475
-0.03109993040561676 -0.09019240736961365 -0.059898555278778076
0.001125149428844452 -0.10734084248542786 -0.07000670582056046
0.08862387388944626 -0.07026852667331696 -0.1701180636882782
-0.12182637304067612 0.05100636929273605 -0.06710495054721832
-0.10297983884811401 0.06931573152542114 0.07825060188770294
0.03375668078660965 -0.09525709599256516 -0.0031749606132507324
0.10203453153371811 -0.051810815930366516 0.004812674596905708
-0.07172107696533203 0.1505090594291687 -0.26673567295074463
-0.05287854000926018 0.12293990701436996 0.1074284166097641
-0.09787307679653168 0.07520681619644165 0.032845038920640945
-0.1165793240070343 0.03994791954755783 -0.012300061993300915
0.0414920412003994 -0.09673531353473663 0.005292563699185848
-0.013953912071883678 0.12620022892951965 0.04458864405751228
0.03918645530939102 -0.09247230738401413 -0.13766847550868988
-0.03237290307879448 -0.04936317354440689 0.10882344841957092
-0.053701285272836685 -0.022998623549938202 0.127488911151886
-0.018034186214208603 -0.0334402397274971 0.3880273699760437
-0.07966849207878113 0.03771708905696869 0.19289353489875793
-0.0926872044801712 -0.043344948440790176 -0.036489177495241165
0.026125408709049225 -0.10148593783378601 -0.028318919241428375
0.08818072080612183 -0.06929497420787811 -0.013062385842204094
0.11169838160276413 -0.049441512674093246 -0.22613181173801422
0.010921365581452847 -0.017872147262096405 0.4071873128414154
-0.0717913806438446 0.0763082429766655 0.020840203389525414
-0.04174032434821129 -0.08548656105995178 -0.04087814688682556
0.010354762896895409 -0.03005232661962509 0.2882789075374603
-0.03270325809717178 -0.10864858329296112 -0.26653584837913513
-0.0867888554930687 -0.07754213362932205 -0.1278986781835556
0.08564126491546631 0.0373135469853878 0.11691746115684509
-0.006009999662637711 0.08864514529705048 -0.28549736738204956
0.08342965692281723 -0.07566415518522263 -0.024661213159561157
0.03239653632044792 -0.08161435276269913 0.045258164405822754
-0.08251693844795227 -0.0764763355255127 -0.10607950389385223
0.04308216646313667 -0.10610862076282501 -0.3809954822063446
0.07261835038661957 -0.0745682492852211 -0.11000735312700272
-0.01303105242550373 -0.11014769971370697 -0.3059720993041992
-0.1220320463180542 0.027975361794233322 0.005235385149717331
-0.004576651379466057 -0.1035328283905983 -0.0010843691416084766
-0.09113237261772156 -0.04818329960107803 -0.09551450610160828
0.09189571440219879 -0.0729658454656601 -0.08122829347848892
-0.09373266249895096 -0.03400788456201553 -0.02914179116487503
-0.057187534868717194 0.0037224180996418 0.3195071220397949
0.010291200131177902 -0.07027149200439453 0.14033521711826324
-0.09861548244953156 0.09958767890930176 0.024198289960622787
0.1107986718416214 -0.04446250945329666 0.013426633551716805
-0.07281650602817535 -0.03898477554321289 0.039209432899951935
0.023813724517822266 -0.07101461291313171 0.16561606526374817
-0.05638716369867325 -0.07855475693941116 -0.038976047188043594
-0.006702312268316746 -0.06488484144210815 0.16214339435100555
-0.111757792532444 0.037189967930316925 0.10131596773862839
0.005829365458339453 -0.10714834928512573 -0.08674295246601105
-0.07464912533760071 -0.06527882069349289 -0.29259493947029114
-0.004591241013258696 -0.022769350558519363 0.26609277725219727
-0.11807379126548767 0.006965756416320801 -0.061848897486925125
0.08981078863143921 -0.055732838809490204 0.06631823629140854
0.09253344684839249 -0.07287651300430298 -0.017232831567525864
-0.0013847080990672112 0.1400241255760193 0.11652819067239761
0.11105134338140488 -0.054261986166238785 0.009692655876278877
0.09010237455368042 -0.06309733539819717 -0.010399047285318375
0.0238712877035141 -0.0785728320479393 0.04611414298415184
-0.11589837819337845 -0.051535043865442276 -0.16476354002952576
-0.0048530567437410355 -0.03713742643594742 0.28795742988586426
0.09209418296813965 -0.06678187102079391 -0.028244908899068832
0.0015196800231933594 -0.09140762686729431 -0.0032229535281658173
0.08301405608654022 -0.0654970109462738 -0.015440288931131363
-0.035184670239686966 -0.09533724188804626 -0.0926208645105362
0.04647425189614296 -0.055801890790462494 0.09658785909414291
0.026766862720251083 -0.09950793534517288 -0.056846439838409424
-0.06259079277515411 0.12999844551086426 0.08355962485074997
-0.11955071985721588 -0.029069164767861366 -0.28651323914527893
-0.050777923315763474 0.12570786476135254 0.06843393296003342
-0.09866475313901901 -0.03613997995853424 -0.04021396115422249
-0.10408440232276917 0.026291828602552414 0.12979640066623688
0.004564159084111452 -0.0774543285369873 0.07506699115037918
0.038975153118371964 -0.07166688144207001 0.04695718735456467
-0.06082724779844284 0.14428983628749847 0.061050258576869965
0.031141193583607674 -0.01901405118405819 0.2718200981616974
-0.048184819519519806 -0.014507047832012177 0.282056987285614
-0.07065577805042267 0.01983407698571682 0.2995225787162781
0.030555550009012222 -0.09419532120227814 0.0025809835642576218
-0.1078965961933136 0.047132570296525955 0.09283111989498138
0.024461854249238968 -0.030492234975099564 0.32373636960983276
0.06047345697879791 -0.0878661647439003 -0.02950017713010311
0.0896778255701065 -0.017633898183703423 -0.3769712448120117
-0.07227320224046707 0.13581582903862 -0.12900491058826447
-0.07881925255060196 0.12142147123813629 0.04170067235827446
0.03221489116549492 -0.047038935124874115 0.14690449833869934
-0.08353077620267868 0.13439762592315674 0.056317903101444244
-0.1014731228351593 0.008846862241625786 0.10709042847156525
-0.10201255977153778 -0.057602912187576294 -0.09267953038215637
0.033026743680238724 -0.07873021066188812 0.009787369519472122
-0.11917579174041748 0.051286481320858 -0.01060793548822403
-0.11601738631725311 0.0916934609413147 -0.1467864066362381
0.08717170357704163 -0.07014884054660797 -0.01043197512626648
-0.08092470467090607 0.06200619041919708 0.16293735802173615
0.09026410430669785 -0.03799350559711456 0.1579897701740265
0.09002631157636642 -0.06536947935819626 -0.017080985009670258
0.03938297554850578 -0.10970604419708252 -0.3091851472854614
-0.003326423466205597 -0.0826229602098465 0.057217951864004135
0.09049906581640244 -0.06701339781284332 -0.017173748463392258
-0.08996275067329407 0.06187724322080612 0.03459365665912628
-0.03296774625778198 -0.0912928581237793 -0.04385237395763397
-0.028712958097457886 -0.09542803466320038 -0.1222778856754303
0.011166635900735855 -0.08171926438808441 0.08225785195827484
0.011113264597952366 -0.09544068574905396 0.013822471722960472
-0.0038843778893351555 -0.015330774709582329 0.36214035749435425
0.025154784321784973 -0.1023598462343216 -0.22340695559978485
0.1062442809343338 -0.04609014093875885 0.0522974357008934
-0.09946425259113312 0.05668042227625847 -0.09909600764513016
0.07564638555049896 -0.08591197431087494 -0.1630723774433136
