-0.070929 0.046879 0.028102
-0.067621 0.021668 -0.350459
0.082046 0.018462 -0.557291
-0.009840 -0.018447 -0.405827
-0.073836 0.097759 -0.299799
-0.097519 0.142539 0.362755
0.022049 -0.107752 -0.112228
-0.047273 0.073909 -0.055631
0.089881 -0.039536 -0.413636
-0.066952 -0.014034 -0.151269
-0.108860 0.068148 0.243699
0.186691 -0.060250 0.282207
-0.020837 0.135272 -0.105026
-0.090278 0.112030 0.234745
-0.100329 0.031107 0.204394
-0.069590 0.032309 -0.109607
0.072356 -0.013299 -0.548236
0.077518 -0.010964 -0.546522
0.181432 -0.041795 0.194999
-0.048127 0.182663 0.409469
-0.105068 0.027117 0.220201
-0.024136 0.018700 -0.403669
-0.064525 0.124763 -0.285102
0.155313 -0.024054 -0.147582
-0.080702 0.066774 0.126065
0.116145 -0.109201 0.327995
0.081755 0.027368 -0.549249
0.136405 -0.029758 0.017157
-0.064433 0.006284 -0.101133
-0.050475 0.050746 -0.379119
-0.010170 0.035423 -0.413495
-0.068731 0.125287 0.186825
-0.062164 0.123362 0.162107
-0.048449 -0.049943 -0.339404
0.071017 -0.003882 -0.545197
0.108996 -0.085518 0.151937
-0.074505 0.103141 0.157601
0.143637 -0.009335 -0.098517
-0.072206 0.057247 -0.126731
0.020185 -0.002675 -0.545712
-0.016235 0.128559 -0.019435
-0.103266 0.129511 0.341319
0.010267 0.097861 -0.408487
-0.012526 0.071456 -0.410518
-0.086666 0.058679 -0.295294
-0.091286 0.079062 0.174721
-0.035310 -0.074652 0.233097
0.002057 0.105225 -0.399441
0.061728 -0.009022 -0.543602
-0.073783 -0.042874 0.232432
-0.063120 0.110118 -0.198044
0.116572 -0.047781 -0.046271
-0.051307 -0.042196 0.156945
-0.092630 0.019303 0.176752
-0.069872 0.021858 0.034506
0.157014 -0.032268 -0.358295
-0.045229 0.013524 -0.385012
-0.056372 0.121116 -0.196159
0.073162 0.022311 -0.547302
-0.020983 -0.000385 -0.404162
-0.059852 0.166345 0.283594
-0.096105 0.074728 0.208763
-0.064807 0.105885 -0.172974
-0.032430 0.122085 -0.358039
0.050682 -0.081911 0.120375
-0.084539 -0.020310 -0.251544
0.113198 -0.104510 0.238713
-0.057579 0.058485 -0.042889
-0.103007 -0.013299 0.283511
0.014746 -0.094204 0.213137
-0.093022 0.045188 0.163811
-0.071154 0.055763 0.054308
-0.057654 0.085466 0.023085
-0.117079 0.103520 0.343160
0.088635 -0.112561 -0.243792
0.048228 0.027341 -0.548412
-0.081799 0.083762 -0.325429
-0.125777 0.046443 0.413314
0.140219 -0.024807 0.016866
0.127460 -0.085276 -0.184531
-0.059588 0.122512 -0.223285
-0.065080 0.038744 -0.076120
-0.058676 0.054138 -0.042695
0.193421 -0.054264 0.331559
0.157278 -0.045019 -0.356414
0.033139 -0.098775 0.214520
-0.017503 0.064585 -0.407193
-0.081447 -0.025124 -0.273571
-0.040080 0.098909 -0.367478
0.148447 -0.083717 0.215022
-0.026250 0.111184 -0.371944
0.161991 -0.072780 -0.282036
-0.024515 -0.041945 -0.044184
-0.063754 0.124450 -0.279803
-0.109728 0.037929 0.244831
-0.071184 0.014454 -0.117597
-0.093894 0.011604 -0.267140
0.112564 -0.067817 0.101581
0.018710 0.029266 -0.548020
0.093330 -0.015981 -0.491718
-0.082160 0.017334 -0.191899
0.040230 -0.028128 -0.497985
0.114185 -0.107223 -0.283098
-0.020045 0.100257 -0.385879
-0.060204 0.009798 -0.001095
-0.045295 0.095764 0.001380
0.125487 -0.040602 -0.026209
-0.128526 0.038964 0.371916
-0.075430 0.037388 0.066949
-0.014751 0.133008 -0.068589
0.045573 -0.089574 -0.095504
0.037279 0.009741 -0.541567
-0.060689 0.005583 -0.353899
-0.045903 0.153132 -0.260587
-0.078927 0.128207 0.227257
-0.067546 0.129841 0.186582
-0.070123 0.089928 -0.183218
-0.048361 0.110510 -0.345407
-0.043551 0.110642 -0.082485
-0.079412 -0.030427 -0.276469
0.037244 0.049029 -0.546210
-0.089595 0.005773 -0.278328
0.085327 -0.011717 -0.421661
0.045022 -0.072067 -0.383638
-0.050466 0.085224 -0.086959
0.167104 -0.082127 0.311659
0.048273 -0.115283 0.349736
-0.011306 0.044651 -0.410681
-0.040838 0.128714 -0.142336
-0.103068 0.061868 0.218880
0.169707 -0.060126 -0.254094
0.056245 -0.071556 0.003587
0.147522 -0.085822 -0.272373
-0.026532 -0.085791 -0.202571
0.127931 -0.060770 -0.373754
0.157511 -0.052850 -0.339461
-0.028259 0.127604 0.034114
-0.090864 0.077618 -0.281701
0.107534 0.002720 -0.420652
-0.060720 0.022100 -0.059044
0.028655 -0.028956 -0.499686
0.064829 -0.104475 -0.337898
-0.042058 0.160659 0.211251
0.005457 -0.073736 0.113425
-0.049466 -0.069015 -0.317783
-0.057729 -0.019478 -0.118359
-0.041670 -0.090676 0.418269
-0.071000 0.116487 0.169031
-0.065230 -0.026437 0.160755
-0.018552 0.129242 0.001076
-0.047031 0.097041 -0.033221
-0.033549 0.111294 -0.049139
-0.003673 -0.058677 0.012220
-0.086129 0.028046 -0.313775
-0.115141 0.117443 0.374387
0.014288 0.019070 -0.542686
-0.022885 -0.058413 0.145617
-0.046304 -0.063183 0.209054
-0.044991 -0.056088 -0.161496
0.010936 0.049385 -0.424418
0.018895 0.038890 -0.543206
-0.070017 0.163795 0.401959
0.124500 -0.073837 -0.350204
-0.046515 0.114144 -0.340351
-0.094118 -0.012744 0.214572
-0.032487 0.142962 0.126048
0.130332 -0.009079 -0.409364
0.164413 -0.038060 -0.186865
0.002189 0.008323 -0.418010
-0.079707 0.062392 -0.203840
-0.031324 -0.048168 0.118965
-0.064525 0.114518 0.150470
-0.070960 0.145420 0.229186
-0.059588 0.131506 -0.239802
0.006611 0.000395 -0.539092
-0.116590 0.054622 0.272627
-0.126531 0.068223 0.406007
-0.116246 0.007393 0.378778
-0.045005 0.122887 0.115653
-0.021022 0.096271 -0.385730
-0.067176 0.107075 -0.194850
-0.028497 -0.045063 0.044006
0.195328 -0.043359 0.284140
-0.096065 0.060647 0.181742
-0.037817 -0.030375 -0.066056
0.154199 -0.077621 0.197338
0.009271 0.051288 -0.544038
-0.114273 0.122164 0.380558
0.104425 -0.008674 -0.494286
-0.052558 0.120477 0.128307
-0.115088 0.122129 0.393463
-0.053285 0.066915 -0.063515
-0.045432 -0.013602 -0.371759
0.024158 0.075539 -0.541131
-0.081755 0.054120 -0.203510
0.142620 -0.041588 -0.103811
-0.068929 0.111091 0.153919
-0.130785 0.080084 0.412230
0.032879 -0.076608 0.086443
-0.036870 -0.038069 0.071362
-0.042221 -0.080907 -0.247796
0.106578 -0.113416 0.341825
0.101029 -0.080607 -0.109739
-0.087230 0.063585 -0.305987
-0.050572 0.178426 0.307634
-0.089503 0.076279 -0.246761
0.121514 -0.103294 -0.292321
-0.047502 -0.008348 -0.368830
-0.068991 0.113131 -0.271003
-0.055919 -0.069552 -0.257186
-0.099479 0.075662 0.218162
0.055764 -0.042795 -0.411800
-0.050083 0.129128 0.151955
0.152838 -0.023200 0.079083
-0.044542 0.122111 -0.340672
-0.007342 0.134977 -0.020422
-0.070568 0.040519 -0.350199
0.136040 -0.088848 -0.314845
-0.076457 0.069910 -0.193278
-0.039160 0.141909 -0.190006
-0.078751 0.060850 -0.162487
0.052364 -0.117089 0.407958
-0.032729 -0.046460 -0.365535
-0.125588 0.026601 0.385055
-0.040446 -0.024693 -0.372437
-0.122752 0.049980 0.313941
-0.043124 0.120037 -0.105401
-0.082275 0.057375 -0.311784
-0.085627 0.047095 -0.219467
-0.000071 0.020444 -0.535132
-0.075100 0.101798 -0.243163
-0.093251 -0.039307 0.378853
-0.085627 -0.048459 0.388244
-0.059019 0.103379 -0.148459
0.114846 -0.078273 -0.131462
-0.115061 0.078314 0.306097
-0.054263 0.174608 0.286043
0.162938 -0.085831 0.365164
-0.063380 0.172428 0.324498
0.074501 -0.110200 -0.207064
-0.119673 0.063801 0.325859
-0.064380 0.110717 -0.208914
0.120369 -0.056532 -0.381691
0.183885 -0.034603 0.180337
-0.063697 0.037388 -0.053358
-0.083310 0.079613 -0.306586
-0.083940 0.084436 -0.317236
-0.057042 0.066924 -0.011401
-0.124130 0.040334 0.416696
-0.051519 0.101450 0.075102
-0.021141 0.125586 -0.027588
0.005611 0.000531 -0.525984
-0.065917 0.099693 -0.343271
-0.037433 -0.083827 -0.234583
0.038010 -0.098423 -0.342540
-0.034460 -0.036303 0.020843
-0.065322 0.167473 0.398286
-0.001317 0.029543 -0.532239
0.196486 -0.035030 0.418493
0.106323 -0.099445 -0.323517
-0.002713 0.043043 -0.534445
-0.075369 0.055609 -0.184866
-0.088027 0.005685 -0.291959
-0.077368 0.010798 0.124458
-0.111696 0.017704 0.254970
-0.075140 -0.021958 -0.205919
-0.068405 0.050504 -0.107246
-0.081953 0.059049 -0.214534
0.045471 -0.072261 0.056607
-0.057614 0.155880 0.224826
0.047678 -0.026168 -0.415561
-0.092859 0.046254 -0.243277
-0.064631 0.015269 -0.087083
0.006888 -0.083809 0.185974
-0.094885 0.065210 0.181513
0.136731 -0.011427 -0.035886
-0.090564 0.013582 0.173735
0.006426 -0.096652 0.242457
-0.024643 0.131299 0.013219
-0.068374 0.010507 0.055260
-0.036350 0.120548 0.058537
0.202793 -0.040685 0.366147
-0.097369 0.147349 0.381760
0.146993 -0.031299 -0.094887
0.176785 -0.080272 0.383685
-0.092220 0.015203 -0.261934
-0.081975 0.039616 -0.175678
-0.000705 0.046487 -0.529583
0.092832 -0.088592 -0.122776
-0.052413 0.111457 0.077841
0.161154 -0.091120 0.355052
-0.053624 -0.030458 -0.124269
-0.040437 0.033697 -0.385637
-0.075496 0.060529 -0.195965
-0.057747 0.126710 0.164710
-0.032276 0.113373 -0.365914
-0.079350 0.042607 -0.159324
-0.057962 0.107564 -0.148644
0.022044 0.084894 -0.525227
0.154921 -0.096481 0.365918
-0.066569 0.106775 -0.189393
-0.052259 0.066069 -0.046399
0.121452 -0.102590 -0.298813
-0.083852 0.143891 0.301674
-0.046625 -0.051067 -0.152942
-0.088798 0.019554 -0.294677
0.121236 -0.044636 -0.032811
-0.080923 -0.019372 -0.303345
-0.061649 0.001518 -0.353776
-0.049030 -0.013285 -0.021976
-0.068062 0.116949 -0.246836
-0.019234 -0.104717 0.406857
0.116761 -0.053661 0.011647
-0.056284 0.066144 0.005974
0.074140 -0.116930 0.320909
-0.057236 0.085030 0.034766
0.173200 -0.054846 -0.260833
0.121888 -0.102933 0.249958
0.025422 -0.055823 -0.395345
0.093656 -0.013651 -0.523020
-0.097734 0.095394 0.208142
0.142924 -0.064381 -0.342839
-0.051959 0.142072 -0.257045
-0.066450 0.005218 0.046385
-0.110441 0.063171 0.256375
0.013222 -0.020724 -0.506733
-0.105460 0.052662 0.219356
-0.053223 0.159368 0.227482
-0.074505 0.103282 0.151549
0.051193 -0.109822 0.218765
0.010584 -0.022090 -0.419463
0.015059 0.029953 -0.419798
-0.067802 0.048073 -0.345262
-0.061662 -0.062364 -0.256543
-0.075219 0.074887 0.116424
-0.102526 0.036599 0.213564
0.161907 -0.072124 -0.288519
-0.042639 -0.053220 -0.144909
-0.030501 0.134135 -0.126626
-0.067489 0.144398 0.213608
-0.089168 0.073790 0.159587
-0.123958 0.038348 0.349313
-0.047357 0.097266 -0.038951
-0.067331 -0.038686 -0.307525
0.006096 0.065219 -0.520197
0.186761 -0.038813 0.209032
-0.094488 0.094293 0.204909
-0.085239 -0.013519 -0.292136
0.035161 -0.117543 -0.272743
0.103799 -0.080937 0.133421
-0.058284 0.089360 0.073027
-0.064331 0.035604 0.001583
0.106169 -0.092023 -0.334141
-0.091339 0.078886 0.180812
-0.029201 0.128132 0.010784
-0.045348 -0.083505 0.276041
0.032276 -0.026547 -0.474475
-0.056364 0.145754 0.191352
0.137674 -0.013136 -0.022131
-0.113507 0.122213 0.367697
-0.002123 0.025253 -0.514075
0.123483 -0.031432 -0.400696
-0.000273 0.033181 -0.514286
0.168928 -0.055599 -0.299561
-0.103698 0.101529 0.245245
-0.043749 0.115571 -0.099591
-0.027431 0.050826 -0.400564
-0.094770 0.146296 0.391296
0.031245 -0.078572 0.110571
-0.092084 0.042704 -0.281133
-0.124302 0.045087 0.320534
-0.031087 -0.101603 0.430636
0.032663 -0.030027 -0.508239
-0.055580 -0.054458 -0.193859
-0.074686 -0.031035 -0.214146
-0.079874 0.109488 0.182037
-0.038151 0.113192 -0.068796
-0.056482 0.062832 -0.043082
-0.107296 0.032626 0.229407
-0.074091 0.105859 -0.243330
-0.059825 0.132268 0.173783
-0.053884 0.077521 -0.103476
-0.038138 -0.078044 -0.330053
0.116224 -0.093547 0.192053
-0.009668 0.079062 -0.405655
0.145985 -0.008515 -0.121446
0.167003 -0.078599 0.279326
-0.103654 0.005773 0.226975
-0.095449 -0.026226 0.274010
-0.002418 0.038321 -0.511313
0.021925 0.062832 -0.426013
-0.072572 0.024531 -0.120464
-0.059953 0.114527 -0.309537
0.001295 0.054120 -0.511763
-0.087846 0.092386 0.186208
0.151103 -0.020376 0.058065
-0.128151 0.058833 0.393582
-0.061997 0.152401 0.222170
-0.065494 -0.048371 -0.226007
0.131323 -0.086923 0.192744
-0.000115 -0.073393 0.133359
-0.079557 0.006451 -0.178166
0.022172 0.084850 -0.507125
-0.091925 0.033164 -0.264868
0.024665 -0.027899 -0.491110
0.131397 -0.081312 -0.178114
-0.008210 -0.103484 -0.204769
-0.084750 0.022730 0.145758
0.149588 -0.029172 0.086412
-0.082389 0.032380 0.133240
-0.055166 0.070540 0.005771
-0.062618 0.086004 0.076423
-0.075369 0.006028 0.103457
-0.067696 0.035855 -0.098539
-0.064882 -0.019971 -0.342707
-0.075034 0.102472 -0.291713
-0.021798 0.125904 -0.039070
0.040811 -0.056352 -0.396142
-0.085367 -0.041240 0.279996
-0.025806 -0.067913 -0.363915
-0.126857 0.059212 0.374215
-0.110071 0.022857 0.242281
-0.005682 -0.033744 -0.406536
-0.053818 -0.007295 -0.004222
-0.080500 0.081071 -0.217775
0.168562 -0.047072 -0.323059
-0.048462 -0.012431 -0.368711
0.001480 -0.032044 -0.412883
-0.073233 0.016009 0.085135
0.097637 -0.114948 0.330378
0.091185 -0.112535 0.276133
-0.086468 0.159324 0.367811
-0.078016 -0.057669 0.397629
-0.059310 0.026108 -0.053517
0.117863 -0.050454 -0.025659
-0.061622 0.019396 -0.356475
-0.061486 0.041642 -0.364522
0.135674 -0.073512 -0.342461
-0.105081 0.082150 0.236771
0.052417 -0.061527 -0.396816
-0.051303 0.124780 0.140111
0.134820 -0.092662 0.228830
-0.074638 0.146433 0.251037
-0.024291 -0.049499 -0.380052
-0.077796 0.161734 0.348040
-0.073779 0.110241 -0.248862
0.059508 -0.014884 -0.540510
-0.116867 0.084229 0.302833
0.006215 0.065056 -0.502108
-0.067181 -0.020011 0.151642
0.008095 0.072949 -0.502359
-0.068793 -0.004851 -0.342258
-0.039323 -0.072027 -0.346033
-0.081279 0.037700 0.114993
0.147134 -0.058462 -0.156664
0.114119 -0.106505 -0.289607
-0.073506 0.002632 -0.148067
-0.116880 0.073359 0.319006
-0.036491 -0.091094 0.395137
-0.095576 0.035322 0.182539
-0.039644 0.068479 -0.385831
-0.041186 -0.001477 -0.385558
0.033223 -0.095353 -0.112831
-0.111454 0.058714 0.250398
-0.028704 0.129418 -0.347957
-0.050735 0.099393 -0.090087
0.024792 0.070535 -0.421141
0.156727 -0.099075 0.380818
-0.054311 -0.038413 -0.149450
0.173332 -0.055506 -0.254315
-0.108864 0.027513 0.242043
-0.083187 0.013146 -0.191741
0.021771 -0.096670 -0.114144
0.108543 -0.055374 0.000817
0.092630 -0.002605 -0.421991
0.135965 -0.036131 0.014677
0.147126 -0.082453 -0.304816
-0.075681 0.098759 0.151783
-0.087358 -0.026745 0.229917
-0.061909 0.109532 -0.187134
0.021185 0.085215 -0.493982
-0.009029 0.026174 -0.416319
-0.055051 -0.071552 0.306757
-0.073470 0.070143 0.089588
-0.070638 -0.042244 -0.299046
-0.055738 0.097922 0.084439
0.106948 -0.111936 -0.267312
-0.086829 0.159373 0.374233
0.045551 -0.094477 -0.351617
-0.062455 0.019902 -0.361682
-0.001092 0.024434 -0.490886
-0.072140 0.024135 -0.114862
-0.074069 0.020660 -0.125881
-0.070154 0.106973 0.136050
-0.056253 0.180219 0.361883
-0.059799 -0.026402 -0.348662
0.135705 -0.108747 0.365715
0.074748 -0.025230 -0.499320
0.099826 -0.102462 0.215929
-0.080037 0.020638 -0.181095
-0.096281 0.118504 0.265880
-0.072193 0.081639 -0.182866
-0.071378 0.104542 -0.221801
0.167316 -0.064430 0.210723
-0.056566 0.131246 0.164472
0.185303 -0.036695 0.194664
0.098492 -0.085813 -0.361430
-0.070427 -0.015950 -0.178783
-0.120439 0.033208 0.320750
-0.084490 0.071178 -0.301019
0.146632 -0.030498 -0.101653
-0.009945 -0.000363 -0.408364
-0.078306 0.046804 -0.159496
0.167034 -0.052850 0.167366
0.162700 -0.068464 0.203861
-0.030651 0.119579 -0.038105
-0.079227 0.032063 0.112006
-0.070744 0.046593 0.033951
-0.071643 0.088017 0.127743
-0.056985 0.135131 -0.277997
-0.110419 0.096940 0.311399
-0.086684 0.071844 -0.292770
-0.130318 0.080168 0.405734
-0.001696 0.055076 -0.490564
-0.000758 0.059031 -0.490687
-0.054236 0.154792 0.215400
-0.080804 0.095112 -0.245202
-0.064397 0.073601 0.021028
0.192077 -0.038862 0.255010
-0.035112 0.135818 -0.140244
0.120140 -0.088610 -0.181690
-0.030443 -0.047089 -0.373860
-0.040534 0.117064 0.067843
-0.035711 -0.098313 0.358122
0.120598 -0.048693 0.011365
-0.027114 0.024390 -0.405893
-0.070017 0.036916 0.025358
-0.026083 -0.097652 0.316363
0.111762 -0.102127 0.224205
-0.052681 0.120702 0.116314
-0.032813 -0.091116 0.289553
-0.091780 0.020673 -0.291691
-0.064648 0.115412 -0.219925
0.030783 -0.075762 -0.036053
-0.047986 0.167552 0.248469
-0.084900 0.014529 -0.208117
0.001357 -0.013836 -0.415376
-0.082160 0.100666 0.170334
-0.065547 -0.048750 -0.305027
-0.053452 0.034234 -0.373415
0.104275 -0.014651 -0.418477
-0.030329 0.123745 0.011000
-0.054029 0.096442 -0.117962
0.111410 -0.105682 -0.225756
-0.021357 0.048540 -0.406655
-0.021727 0.130334 0.004243
-0.048902 -0.076207 -0.277143
-0.080302 0.007935 -0.316955
-0.074620 0.065673 0.089808
0.033914 -0.030859 -0.455011
0.133075 -0.111667 0.401765
0.161678 -0.088592 0.329792
-0.048836 0.123613 -0.324239
-0.050862 0.132647 -0.205174
0.134282 -0.017333 -0.407585
0.067022 -0.117318 0.352237
-0.086023 0.042541 -0.213891
-0.023383 -0.043949 -0.015238
-0.062367 0.068100 0.018091
-0.104046 -0.006353 0.261493
-0.052822 -0.072622 -0.309269
-0.024700 0.132325 -0.351133
0.203996 -0.039593 0.348265
-0.093585 0.010221 -0.237305
-0.089313 -0.044332 0.349925
0.140303 -0.095780 -0.265445
-0.100104 0.031596 0.192127
0.014429 -0.005622 -0.419908
-0.067022 0.064607 -0.130154
-0.044613 -0.032290 -0.363923
-0.072466 0.038436 -0.117914
-0.077324 0.156823 0.310206
0.083970 -0.067808 -0.027182
0.020212 0.081234 -0.475607
-0.086657 0.111232 0.212996
-0.066591 0.005552 0.040500
0.058460 -0.097709 -0.135650
-0.063679 0.048038 -0.087809
-0.119158 0.060044 0.288206
-0.097968 -0.012488 0.236436
-0.037768 -0.039109 -0.085990
-0.041049 0.104212 -0.025271
0.043146 0.005407 -0.546346
-0.085825 -0.019231 -0.262291
-0.026929 -0.102554 0.420510
-0.036574 0.149965 -0.215186
-0.093299 0.098860 0.204671
-0.031875 0.139253 -0.337056
-0.058244 -0.040861 0.181887
-0.053457 0.077230 -0.097852
0.081394 -0.007982 -0.444793
0.158797 -0.073595 0.204196
0.101527 -0.052599 -0.397454
-0.093224 0.014837 -0.242837
-0.049893 0.108634 -0.107343
0.113991 -0.105091 -0.302600
0.129288 -0.103647 -0.262485
-0.015521 0.142226 0.085804
0.160872 -0.040487 -0.356603
0.021216 0.080842 -0.470537
-0.090582 -0.004441 -0.242894
0.039706 -0.033647 -0.442705
-0.067987 0.117156 -0.271170
0.033557 -0.021874 -0.446894
-0.072365 0.021422 0.067130
0.148244 -0.071913 0.171581
0.057707 -0.102198 -0.151542
-0.076430 0.070597 0.110663
0.161559 -0.031802 -0.168582
-0.065895 0.002372 -0.106590
-0.105328 0.052869 0.213194
0.168694 -0.053758 -0.318914
-0.090577 0.022602 -0.237750
0.032280 -0.028212 -0.455386
-0.075215 0.036828 0.078793
0.000458 0.045307 -0.470123
0.005924 -0.107025 -0.169996
-0.070867 0.109761 -0.300284
0.106574 -0.108302 -0.299901
-0.113780 0.023496 0.258009
0.105341 -0.054722 -0.393464
-0.069427 -0.016906 -0.167741
0.099241 -0.077467 0.122057
-0.070555 0.016436 0.052344
-0.063521 0.128771 -0.285273
-0.033192 0.152859 0.165049
-0.068084 0.069888 -0.334770
-0.050968 0.104392 -0.107149
-0.095889 -0.033480 0.388495
0.121642 -0.057885 0.029718
0.113418 -0.080871 -0.353815
-0.015755 0.081313 -0.399560
-0.049435 0.145578 -0.270884
0.000700 -0.107663 0.353501
-0.112080 -0.000332 0.391653
-0.120514 0.019334 0.385024
-0.089075 0.116628 0.234502
-0.070440 0.092355 0.133531
-0.060874 0.045439 -0.042303
-0.051021 0.094240 -0.358180
-0.080095 0.056723 -0.320011
0.008368 -0.112442 -0.270765
-0.097585 -0.011907 0.224033
-0.016724 0.077314 -0.399414
-0.100448 -0.029960 0.363028
-0.120162 0.113774 0.384447
-0.079227 -0.032035 -0.246567
0.095814 -0.113821 -0.262031
-0.039724 0.064057 -0.380524
-0.116673 -0.001182 0.347159
-0.058702 -0.061827 -0.289585
0.173517 -0.050049 -0.245440
-0.061746 0.049694 -0.016374
0.125707 -0.105056 0.314205
0.041261 -0.016316 -0.434777
0.025568 -0.084078 -0.025927
-0.089732 0.044558 0.148475
0.083737 -0.100876 -0.332670
-0.039543 0.121644 0.061721
-0.090864 0.064457 -0.284208
0.148874 -0.095410 0.318799
-0.122294 0.073742 0.360579
0.067608 -0.025199 -0.534533
-0.111256 0.111831 0.339319
0.130618 -0.031106 -0.010243
-0.103588 0.032221 0.207644
0.017063 0.042585 -0.425339
-0.071960 0.029187 -0.126225
-0.091225 0.023073 -0.243136
-0.058420 0.089549 0.067112
0.008804 -0.114882 -0.250901
-0.030443 0.138742 -0.137958
-0.057156 0.122195 -0.304604
-0.025563 -0.066412 -0.126864
-0.083988 0.050804 -0.214212
0.145659 -0.067037 -0.194696
-0.067608 0.102648 -0.189213
-0.075981 -0.038479 -0.238666
-0.080887 0.138205 0.273521
0.007338 -0.002732 -0.418833
-0.071211 -0.007551 0.139534
0.144100 -0.027142 0.021037
0.141382 -0.082549 -0.212442
-0.060420 0.050412 -0.053935
-0.081442 -0.041795 0.264078
0.142871 -0.104624 0.362284
-0.067595 0.087501 -0.356176
-0.046599 0.073381 -0.044201
-0.101804 -0.020006 0.299345
0.016486 -0.007207 -0.545593
-0.047956 0.187843 0.373832
-0.059213 0.135902 -0.269699
-0.061803 0.055248 -0.039572
-0.073369 0.082322 -0.193793
-0.079910 0.123772 0.215176
-0.062710 0.016039 -0.009732
-0.071801 -0.003701 -0.339241
-0.054170 0.133955 -0.232226
-0.032152 0.133351 0.087452
-0.082165 0.148564 0.288836
-0.089952 -0.004957 -0.237503
0.142721 -0.089909 0.232776
-0.109926 0.037714 0.251050
-0.063547 0.011305 -0.356224
0.075562 -0.073697 -0.379031
-0.024854 0.135809 0.068966
0.146905 -0.024213 -0.099239
-0.064173 -0.049913 -0.294377
-0.054166 -0.021284 0.078511
0.120338 -0.064311 -0.099860
0.099963 0.003337 -0.462552
0.035812 -0.003591 -0.546100
-0.050004 0.128361 -0.316166
-0.078077 0.066144 -0.198563
0.030474 0.041951 -0.437949
-0.052699 -0.005428 -0.053525
-0.114075 0.049240 0.257110
-0.090925 0.063836 -0.259961
-0.029994 0.119231 -0.026628
-0.087939 0.148965 0.403672
-0.059711 0.085304 0.061430
-0.011641 0.131695 -0.017043
-0.085935 0.073284 0.138257
-0.124795 0.099384 0.398171
-0.002550 -0.066284 0.018879
0.034835 -0.018500 -0.423137
-0.080482 -0.024609 -0.292598
-0.051787 0.137509 -0.221616
-0.072158 0.112193 0.157134
-0.041710 -0.025640 -0.031142
0.118470 -0.106963 -0.244061
0.052787 -0.076344 -0.375533
-0.093110 0.151026 0.384575
0.135877 -0.081479 -0.325446
0.128112 -0.068649 -0.356801
-0.044172 0.100146 0.001169
0.029444 0.033384 -0.432544
-0.073431 0.154325 0.415489
-0.062230 0.009424 -0.084356
-0.041736 -0.038166 -0.361646
0.091995 0.017506 -0.434615
-0.065415 0.016484 0.005027
0.035284 0.057793 -0.433337
-0.059112 0.112822 -0.170881
-0.079852 -0.031489 -0.251958
0.172442 -0.050415 -0.306225
-0.034452 0.144759 -0.187768
-0.042683 0.175841 0.263338
-0.079090 0.152172 0.323120
-0.028691 -0.061928 -0.366165
0.028660 -0.011435 -0.422115
0.145628 -0.060157 0.138508
0.120651 -0.055991 0.015818
-0.060913 0.054362 -0.022338
0.168496 -0.046477 -0.329490
-0.055743 0.121468 0.137539
-0.074981 0.024055 -0.330996
0.118285 -0.097009 0.213692
-0.074113 0.151009 0.275724
0.124487 -0.051018 0.015536
-0.063314 -0.032894 0.169894
0.023277 0.040237 -0.431571
-0.109472 0.101534 0.317469
0.141805 -0.011048 -0.068659
-0.013632 -0.056048 -0.050927
-0.001731 -0.087218 0.211586
-0.128121 0.054433 0.374480
-0.057518 0.155889 0.218664
-0.068912 0.070320 -0.339994
0.005325 -0.103396 -0.144437
0.053025 -0.114997 0.328837
-0.080051 0.138386 0.242395
0.009721 -0.021574 -0.424638
0.000621 -0.106236 0.315152
-0.043859 0.130515 -0.327560
0.086406 -0.051375 -0.402916
-0.083557 0.027830 0.133460
-0.109697 0.116588 0.332695
-0.037614 0.122569 -0.091822
-0.084517 0.091593 0.170801
-0.017992 0.095156 -0.388764
-0.032769 -0.034369 -0.028979
-0.069189 0.169080 0.353581
-0.109058 0.027280 0.248258
-0.083592 0.082119 0.143828
0.084878 -0.090345 -0.133391
-0.068736 0.008631 -0.114910
-0.110067 -0.007542 0.321565
-0.051347 0.111594 -0.342417
0.091145 -0.091948 0.161222
