0.217878 0.027354 0.304352
-0.008223 0.218952 -0.113884
0.152107 0.009398 0.257414
0.551752 0.093456 -0.103216
0.221662 0.012503 -0.105714
0.066190 0.432853 -0.049491
0.066983 -0.028163 0.380047
-0.064036 0.072658 0.327004
0.270811 0.038894 0.060479
0.009615 0.290572 -0.008666
0.042014 0.387263 0.073750
0.297841 0.050733 0.243377
0.011606 0.351045 0.306132
-0.030880 0.126278 -0.028134
-0.076034 0.013828 0.294412
0.264499 0.037802 0.288655
-0.091758 -0.061021 0.229803
-0.068674 -0.032365 -0.130673
-0.015988 0.219374 -0.021589
0.051721 -0.024565 0.045530
-0.093814 -0.008141 0.389878
-0.052950 0.057741 0.156936
0.109018 -0.022301 -0.120112
-0.072457 -0.060466 -0.093315
0.101209 -0.020799 -0.106700
-0.058390 0.052693 0.243818
-0.023938 0.201818 0.100370
-0.014381 0.247735 0.063329
0.029488 -0.027587 0.089020
0.042485 0.420058 0.273971
0.487020 0.083696 0.422946
-0.027902 0.138588 0.010696
0.191892 0.022153 0.140067
0.097109 -0.009282 0.044072
0.242609 0.027103 -0.019021
-0.075620 -0.052115 -0.130321
0.002960 0.276033 0.015968
0.491601 0.093756 0.324767
0.349602 0.060960 0.168810
0.065472 0.469855 0.169031
-0.044401 0.135091 0.202090
0.041269 0.467150 0.378206
0.444773 0.074878 0.423021
0.053452 0.482116 0.316764
0.037640 0.491670 0.423470
0.080117 0.497136 0.185759
0.011971 0.330754 0.192348
0.045586 0.378388 -0.106326
-0.051483 0.017832 -0.093663
0.035257 0.387936 0.187216
0.336014 0.060137 0.301291
0.118616 0.012459 0.414780
0.384428 0.068065 0.114860
-0.055575 0.127375 0.417564
-0.046859 0.093958 0.135059
0.369113 0.053252 -0.085317
0.004933 0.312506 0.148722
0.161229 0.011023 0.231481
0.210651 0.022135 0.418057
0.308412 0.052098 0.228116
0.052743 0.511128 0.367675
0.389744 0.066184 0.037404
0.240262 0.029394 0.350797
-0.033342 0.145177 0.125057
0.127869 -0.012977 -0.086889
0.072043 -0.021834 -0.020373
0.049519 0.473123 0.310461
-0.004788 0.266282 0.044108
0.009307 0.387223 0.414454
0.454286 0.086374 0.200320
-0.090837 -0.056000 0.223350
0.026316 0.359753 0.134244
0.234166 0.035833 0.417952
-0.047771 0.076226 0.091182
0.083490 0.492951 -0.097812
-0.009562 0.242291 -0.072103
-0.045242 0.183483 0.284030
0.345008 0.050244 0.393265
0.025299 -0.040509 -0.129110
-0.052245 0.061832 0.172730
0.430740 0.069989 0.422563
0.021560 0.399141 0.359042
0.059420 0.415588 0.041223
-0.024423 0.155374 -0.016299
0.206039 0.026429 0.194457
-0.028735 0.204774 0.182469
-0.001912 -0.039078 0.060629
-0.038059 0.255165 0.380694
-0.021939 0.205197 0.069424
0.421073 0.069298 0.425126
-0.079637 0.061801 0.409583
0.503757 0.093187 0.241422
0.334578 0.056529 0.337892
0.404618 0.051169 -0.102767
0.054694 0.442120 0.185763
-0.018811 0.262947 0.217453
-0.033258 -0.042460 0.166445
-0.107631 -0.049384 0.404633
0.026127 0.381414 0.419114
-0.041305 -0.037193 0.409662
0.288292 0.042655 0.039509
-0.014755 -0.037858 0.265131
-0.066613 0.063546 0.333814
0.356922 0.057349 -0.007160
-0.040556 0.062396 -0.058480
-0.044811 0.227681 0.347573
0.126927 0.001804 0.127972
-0.017983 -0.045125 0.043689
-0.005730 0.282582 0.112139
-0.060786 0.043646 0.250425
0.266556 0.035921 0.418797
0.443658 0.078992 0.003605
0.010734 0.378471 0.426346
-0.083389 -0.018734 0.304608
0.220274 0.014652 0.389609
-0.031324 -0.043196 0.254825
0.008725 -0.030088 0.155372
-0.042261 0.082264 -0.107251
0.051510 0.461645 0.426320
0.325650 0.052010 0.356981
-0.043542 0.087902 0.128113
0.331072 0.057260 0.214819
-0.056795 0.029491 0.045121
0.398539 0.060603 -0.062101
0.365255 0.061198 0.040351
0.233924 0.031613 0.140331
0.074844 -0.016316 0.068627
0.015940 0.312546 -0.059458
-0.033566 0.278817 0.407610
0.022868 0.366245 0.223610
0.246564 0.029764 0.038197
0.046418 0.445824 0.257776
0.022793 -0.045024 -0.119543
0.125015 0.002615 0.166000
0.498793 0.078248 -0.100569
0.032346 0.425753 0.371643
-0.066727 0.023875 0.189789
0.025259 -0.034625 -0.035154
-0.062358 0.001857 0.084985
-0.025524 0.142174 0.031568
0.039080 0.505539 0.420215
0.043172 0.391169 0.006824
-0.072770 -0.008595 0.205781
-0.087631 -0.071803 -0.049865
-0.079311 -0.076440 -0.083969
0.282751 0.042554 0.134786
0.075695 0.500078 0.086963
0.189483 0.022562 0.142335
0.282839 0.030772 -0.084647
0.339978 0.059771 0.285585
-0.008457 0.302253 0.236163
0.108697 -0.000904 0.222091
0.051364 0.411306 0.131840
0.057504 0.425229 0.100141
-0.059200 -0.052062 0.121511
-0.071220 -0.027525 0.173118
0.352663 0.049346 -0.077349
0.076448 0.486719 -0.001910
0.042415 0.486763 0.385301
-0.050162 0.161161 0.310475
-0.020291 0.242070 0.113262
-0.039675 0.224743 0.287426
0.472098 0.090990 0.257498
0.012777 0.390332 0.403857
-0.053016 0.053843 0.125475
0.493640 0.089519 0.027023
-0.058848 0.048474 0.227645
0.403948 0.065510 -0.035784
0.498093 0.095958 0.433763
-0.071334 -0.054594 -0.039982
0.050259 0.479192 0.327079
-0.090445 -0.071098 0.362152
-0.055743 0.016158 0.008084
0.352993 0.053490 0.422889
0.463258 0.086885 0.150193
0.402869 0.062515 0.421986
0.481378 0.102697 0.432332
0.244019 0.019686 -0.088179
0.069308 0.501584 0.431288
0.324862 0.067536 0.421391
0.543313 0.084370 -0.085246
-0.046123 0.164447 0.306678
0.170037 0.015528 0.122207
0.374667 0.068496 0.256208
0.381596 0.070654 0.238392
0.107803 -0.002565 0.108157
-0.021784 0.209856 0.078718
-0.035117 0.237428 0.287069
0.445156 0.084475 0.220184
-0.014821 0.323020 0.418868
-0.017635 0.246827 0.156659
0.502577 0.093276 0.290663
0.115378 -0.000971 0.288267
-0.058332 -0.051238 0.144996
-0.042080 0.231222 0.330669
0.488407 0.083568 -0.023769
-0.082856 -0.066522 -0.010855
-0.071475 0.094064 0.405676
-0.079165 -0.053251 0.410160
0.052355 -0.018549 0.287087
-0.076029 0.105899 0.416754
0.067493 -0.014792 0.412697
-0.049893 0.054464 -0.124450
-0.004541 -0.034444 0.190458
0.431705 0.081551 0.219642
0.029549 0.432496 0.385680
0.209087 0.018915 0.027485
-0.024947 0.146521 -0.019492
0.026911 0.319611 -0.107867
0.202141 0.016555 0.021187
0.061741 -0.016258 0.297178
0.049237 -0.017703 0.157672
-0.077364 0.023937 0.308021
0.334177 0.056164 0.097397
-0.052373 0.049500 0.100365
-0.007743 0.354410 0.429628
-0.060883 0.005988 0.084880
0.010945 0.309476 0.027723
0.104099 -0.014210 0.367710
-0.099747 -0.040707 0.413534
0.010443 -0.032757 0.309721
-0.019639 0.157880 -0.043774
-0.047647 0.239644 0.408698
0.035464 0.348865 -0.076301
-0.032342 0.118420 -0.119187
0.040111 0.424586 0.323780
0.440003 0.077411 0.391789
0.186224 0.016136 0.095679
-0.021318 0.308150 0.389666
-0.014610 0.269801 0.185173
0.038940 0.514956 0.417062
0.407075 0.077750 0.295218
-0.027462 0.217666 0.141705
-0.065177 -0.036360 -0.084735
0.084882 -0.014083 0.072098
0.406639 0.076812 0.175012
0.003096 -0.048847 0.409037
-0.047766 0.043853 -0.102009
0.001290 0.303609 0.127162
0.508038 0.102054 0.305766
-0.010892 0.248325 -0.030442
-0.049268 0.103450 0.202007
-0.089225 -0.071375 0.139939
-0.069018 -0.007291 0.141820
-0.059742 0.019977 0.082074
-0.045652 0.044461 0.007406
-0.066595 -0.008264 0.138261
0.231440 0.031909 0.172735
0.372073 0.067153 0.222135
-0.023652 0.145900 -0.110959
0.502378 0.084951 -0.048121
0.027924 0.330851 -0.052045
-0.054959 0.090584 0.241039
0.085305 -0.009797 0.108800
-0.055527 0.057512 0.204927
0.352843 0.054653 0.381152
-0.064617 -0.026732 -0.096160
0.150742 -0.000526 -0.020483
0.367572 0.058688 -0.010468
-0.052831 0.181924 0.367772
0.432128 0.082194 0.327753
0.320405 0.041678 -0.092060
-0.037618 0.184883 0.215101
0.023572 0.344654 0.093900
-0.094722 -0.057286 0.272570
0.366651 0.067140 0.257124
-0.012980 0.287458 0.175871
-0.064635 -0.026032 -0.110752
-0.000308 0.294629 0.117847
0.473120 0.090483 0.262479
-0.054175 0.133968 0.417789
-0.043745 0.125221 0.412406
0.382547 0.066166 0.086038
0.484703 0.091597 0.246240
0.413607 0.087136 0.423858
0.396104 0.066162 -0.004464
-0.010214 -0.051141 -0.085074
-0.078047 -0.073252 -0.069293
0.027255 0.377494 0.275067
0.443434 0.083282 0.125158
0.005127 0.306732 0.123564
0.097289 -0.005600 0.243382
-0.012306 -0.039452 0.118093
-0.046022 0.050425 -0.034260
0.033874 0.379150 0.118032
0.452485 0.085691 0.334223
0.198961 0.020858 0.097269
0.489698 0.085977 -0.012353
0.148152 -0.000081 -0.018039
0.326752 0.055569 0.320671
0.068462 0.478201 0.168806
0.026272 0.371063 0.169097
0.003400 -0.034391 0.111064
-0.092255 -0.079832 0.140164
-0.026563 0.124745 -0.079150
0.326712 0.043928 -0.085220
0.204718 0.023117 0.417621
-0.046255 0.112126 0.179526
-0.059372 -0.024217 -0.004887
-0.059072 -0.023640 -0.019942
0.278607 0.045505 0.211428
-0.016310 0.252020 0.194510
-0.042758 0.067038 -0.016295
-0.037671 0.141187 0.410521
0.178507 0.018233 0.295742
-0.001321 0.315796 0.277609
0.456766 0.086722 0.348643
0.263751 0.050896 0.418691
0.074386 0.460817 -0.100089
0.065216 -0.019214 0.335505
-0.095915 -0.066257 0.262735
0.075118 0.522580 0.172153
0.303430 0.049081 -0.099464
-0.023612 0.150564 0.010383
0.132573 -0.009652 -0.072332
-0.033513 0.140694 0.078555
0.315401 0.045175 -0.020541
0.367691 0.062400 0.098617
0.518789 0.094835 0.204130
-0.086521 -0.040245 0.261951
-0.014218 0.209676 -0.028129
0.047251 0.384770 -0.068390
0.244133 0.023307 -0.057375
0.099038 -0.000266 0.411547
0.272313 0.034886 0.419379
0.351174 0.062458 0.215881
-0.056557 0.039343 0.175932
0.278779 0.034776 -0.037938
0.226062 0.029372 0.231199
0.024312 0.392544 0.345137
0.209876 0.025667 0.275089
-0.025343 -0.040558 0.250010
0.049567 0.390473 -0.039057
0.385035 0.058155 0.419061
0.111225 -0.003340 0.092852
0.382820 0.071068 0.219325
0.139942 0.006491 0.111249
-0.066974 0.078574 0.340856
-0.005554 -0.028159 0.409486
0.447887 0.068879 -0.104833
0.119475 -0.001869 0.043588
-0.004136 -0.053652 -0.127251
-0.044172 0.227553 0.354149
-0.076289 -0.056695 0.141930
0.314415 0.053508 0.253107
0.062089 0.444080 0.124832
0.019617 -0.038373 -0.054979
-0.030611 0.134827 0.087152
0.049823 0.400824 0.106866
-0.045256 0.168979 0.300084
0.498150 0.092346 0.366688
-0.014151 0.151154 -0.053825
-0.032100 0.158646 0.069667
-0.017737 0.147926 -0.117729
-0.079830 0.051526 0.412798
0.388211 0.056516 -0.089805
0.010826 0.293955 -0.023672
-0.015521 0.205963 -0.013146
-0.034046 0.202805 0.240695
0.015526 0.358356 0.289333
-0.055324 0.020889 0.002160
-0.023943 0.234187 0.419101
-0.075598 -0.009995 0.261048
0.423891 0.069298 0.410539
-0.054725 0.007323 -0.019475
0.268159 0.036124 0.044191
0.174156 0.015709 0.281049
0.252458 0.025421 -0.064422
0.148059 0.020219 0.414001
0.034509 -0.024402 0.097238
0.205431 0.020113 0.338046
-0.098206 -0.081884 0.414886
-0.070185 0.059749 0.344235
0.035130 0.422842 0.344389
0.321748 0.040202 0.412019
0.061732 0.440160 0.131034
0.069255 0.485940 0.156249
-0.023806 0.146054 -0.028640
0.089991 -0.027243 -0.122089
-0.052673 0.070663 0.214445
0.169747 0.007856 0.030445
0.081843 0.498822 -0.085647
0.367286 0.061616 0.008511
-0.092564 -0.066654 0.046046
-0.074431 -0.053819 -0.110228
0.042155 -0.021676 0.102982
0.066701 0.435755 0.040624
0.007157 0.354546 0.343261
0.491852 0.092514 0.149700
0.308381 0.048698 0.058832
0.352887 0.048306 0.409777
0.048303 0.435346 0.250746
0.177045 0.009600 0.415503
0.437268 0.082736 0.166727
0.097536 -0.022147 0.401946
0.019978 -0.044548 -0.116892
-0.008390 0.335035 0.421783
-0.077531 -0.060400 0.051930
0.379596 0.069641 0.191819
0.038984 0.444243 0.427694
-0.076584 -0.060505 0.023905
0.035200 0.438068 0.429725
0.412479 0.071940 0.018148
0.045414 0.462191 0.281159
0.067630 0.455892 -0.078573
0.036235 0.466952 0.429284
0.017838 0.444168 0.428328
-0.006519 0.258089 0.050221
0.018208 0.309841 -0.100873
-0.013817 0.292347 0.298442
0.082429 -0.020147 -0.041422
-0.034738 0.193054 0.192568
-0.077747 -0.048842 0.082721
0.061085 0.530957 0.261123
0.037235 -0.023103 0.293707
-0.016887 0.306058 0.375550
0.065212 0.429990 -0.034564
-0.015997 0.310335 0.368811
0.374328 0.069412 0.316914
-0.001379 0.328798 0.350502
0.398051 0.075733 0.248742
-0.029122 0.263494 0.418357
-0.025502 0.137699 -0.037559
0.407080 0.073301 0.101590
-0.051779 0.118174 0.263920
-0.028329 0.175845 0.109606
-0.036693 0.270109 0.407848
-0.001973 0.274822 0.059118
-0.070176 0.009182 0.225125
-0.073752 -0.032163 0.189282
0.481435 0.091007 0.218968
0.028083 0.374080 0.153153
-0.005118 0.209050 -0.114773
0.039292 0.424317 0.317262
0.377055 0.064638 0.066579
0.362370 0.062995 0.115596
0.168606 0.012014 0.080568
-0.029162 -0.046918 -0.135990
0.038067 0.386294 0.108271
0.436316 0.081476 0.131188
0.103689 -0.015941 -0.047650
-0.052981 0.128286 0.277358
-0.040358 0.110418 0.118926
-0.027330 0.170406 0.038796
0.013786 0.305895 -0.029741
-0.045110 0.173758 0.287065
0.071563 0.530658 0.387653
-0.047823 0.177294 0.421827
-0.006734 0.302191 0.248821
0.171967 0.015573 0.180663
0.072462 0.476360 -0.075873
0.359622 0.057666 0.423862
-0.052928 0.157325 0.327291
0.028770 0.354670 -0.012877
-0.038728 0.219533 0.283916
0.019203 0.358612 0.420229
0.038407 0.425876 0.334016
0.337120 0.058040 0.131276
-0.028232 0.134127 0.016633
0.099201 -0.010775 -0.012326
0.056161 0.402498 0.032255
-0.042538 0.124794 0.195175
0.122923 -0.010405 0.375629
0.522877 0.089748 0.018707
-0.057289 0.178801 0.402012
-0.032496 -0.043006 0.153597
-0.015913 0.165231 -0.067761
0.039221 0.362140 -0.052984
0.040314 -0.039012 -0.103925
0.070726 0.481628 0.115160
0.051056 0.399771 0.097348
-0.028228 0.175343 0.042121
0.141735 -0.003785 0.372163
-0.063789 -0.051969 0.203931
0.009566 0.393156 0.431627
-0.013323 -0.045486 0.352405
0.440910 0.081088 0.367723
0.034795 0.455426 0.388922
0.383604 0.062405 -0.018101
-0.056822 -0.045508 0.409772
-0.112643 -0.066310 0.381342
0.035597 -0.037796 -0.087351
0.207885 0.012943 -0.110906
0.085098 0.503038 -0.035806
0.034592 0.434694 0.429509
0.219834 0.022778 -0.107158
0.298035 0.041228 0.006304
-0.047916 0.062775 0.063108
0.016442 0.343205 0.192009
0.041846 0.451603 0.310981
0.036345 0.373155 0.037616
0.344484 0.061101 0.311915
0.117145 0.000047 0.142437
0.186911 0.019523 0.113878
-0.059411 0.001289 0.066007
-0.067833 0.026967 0.412001
0.036451 0.358295 -0.058538
-0.050906 0.058137 0.109703
0.314415 0.053759 0.241122
-0.027034 0.217229 0.126039
-0.045326 0.208355 0.347243
0.251163 0.038101 0.180390
0.082632 0.497743 -0.094606
-0.009157 0.338770 0.402232
0.020688 0.273637 -0.119922
0.339472 0.059018 0.201606
-0.053849 0.045377 0.100476
0.008734 0.335964 0.273411
0.227476 0.025553 0.349449
-0.063411 0.121363 0.384799
0.005320 0.282384 -0.029068
0.072206 0.482407 -0.057978
0.015649 0.353001 0.279375
-0.053430 0.094821 0.240920
0.060178 0.428215 0.090526
-0.028858 0.228016 0.170418
-0.034460 0.140852 0.146986
-0.011958 0.307124 0.324881
0.053677 0.414984 -0.100789
-0.064525 -0.052696 0.276666
-0.038367 0.137906 0.410407
-0.028413 0.184989 0.091336
0.345726 0.060718 0.316724
0.045678 0.430364 0.296724
0.041948 -0.033770 -0.056067
-0.049664 0.131898 0.267188
0.030065 0.389918 0.261947
-0.000511 0.315814 0.284026
0.004052 0.328538 0.283687
-0.022665 0.219912 0.420744
0.007501 -0.037470 0.034427
0.487588 0.092826 0.310122
-0.002277 0.356374 0.408495
-0.083173 -0.060237 0.151897
-0.070149 -0.029300 0.103814
-0.058028 0.035886 0.153950
-0.018327 0.198502 0.017060
0.037645 0.375128 0.074093
0.327919 0.056234 0.283647
-0.027515 0.258569 0.286484
0.374888 0.049249 -0.115513
-0.085362 -0.079858 0.409755
-0.058848 0.036467 0.147801
0.213179 0.028522 0.170418
-0.064758 0.087105 0.364094
0.327474 0.049196 0.011594
-0.052924 0.005434 0.007203
-0.069713 0.022131 0.267487
0.020137 0.344341 0.150426
0.012685 0.319721 0.067249
-0.047220 0.160020 0.283784
-0.041389 0.049667 -0.085347
0.181392 0.004689 -0.083123
0.191901 0.010274 0.414269
-0.086613 0.006354 0.342142
0.511359 0.092078 0.131972
-0.036160 0.078080 -0.020008
0.426389 0.094892 0.426100
0.485307 0.092923 0.270073
0.057967 -0.015157 0.168414
0.328201 0.054098 0.096313
0.370739 0.068377 0.283806
0.071061 0.468670 -0.069967
-0.065454 0.027350 0.212040
0.192861 0.004134 0.412014
-0.041036 0.128969 0.195056
0.202194 0.023765 0.131122
0.104812 -0.006260 0.073908
-0.022075 0.195458 0.020575
0.376649 0.070055 0.284863
0.105385 -0.016518 -0.061348
-0.027325 0.152088 0.038237
0.068225 0.467828 0.007934
0.382199 0.064065 0.422959
0.466086 0.079331 -0.040669
-0.030170 0.153259 0.072265
0.079192 0.497911 0.074031
-0.015667 0.186834 -0.110836
0.025369 0.289718 -0.111497
0.221935 0.027117 0.108016
0.251207 0.025623 -0.045183
0.066635 0.453681 0.093310
0.036610 -0.025776 0.317742
-0.031060 0.117852 -0.113637
-0.063331 0.131396 0.381633
0.476564 0.091699 0.325855
-0.024194 0.304939 0.406905
0.034566 0.364236 0.028560
-0.067366 0.009019 0.199034
-0.049400 0.103146 0.224425
0.015552 0.351745 0.256573
0.033782 0.373032 0.093098
0.018926 0.363034 0.227306
-0.050964 0.010393 -0.023003
-0.064582 -0.002759 -0.115553
-0.009117 0.260067 0.084294
0.064543 0.459883 0.106193
-0.006144 0.278385 0.118296
0.062481 0.430285 0.013858
0.026153 0.344341 0.023284
-0.033412 0.135888 0.106162
0.063604 0.485323 0.230433
0.043798 0.471400 0.429474
0.030567 -0.042579 0.397669
0.175001 0.002029 -0.083964
0.479339 0.090056 0.136376
0.097752 -0.010273 0.001134
0.428142 0.081335 0.174659
0.041776 0.495030 0.419586
0.015367 0.340113 0.214423
-0.091731 -0.072146 0.417251
0.303443 0.038247 0.392005
0.077558 0.487063 -0.085246
-0.051250 0.063374 0.097520
0.236729 0.034009 0.210569
-0.001925 0.350816 0.398145
0.083966 0.504443 0.018487
0.066749 0.432668 -0.102516
-0.042754 0.197572 0.346657
-0.020815 0.244533 0.204526
0.251506 0.028980 0.009476
0.012161 0.291501 -0.071231
-0.023854 -0.039029 0.194841
-0.010580 0.249065 -0.000681
0.035755 0.493185 0.434036
0.001726 0.358030 0.374198
0.163999 0.017695 0.417084
-0.021335 0.226483 0.421026
0.382745 0.066677 0.423056
0.101593 -0.020711 -0.101005
-0.041838 0.202056 0.339971
0.509712 0.099618 0.375933
-0.031390 0.149102 0.109329
0.053065 0.466763 0.250869
0.021005 -0.026882 0.199170
-0.035927 0.132043 0.137570
0.070691 0.463340 -0.034525
0.209757 0.018726 0.008780
0.223239 0.014172 0.398863
0.030117 0.442287 0.389226
0.030945 0.390081 0.268333
-0.035724 0.155515 0.147577
-0.068216 0.035459 0.293755
0.021344 0.354591 0.175721
0.191108 0.016277 0.332069
0.513403 0.100014 0.432883
0.402869 0.071328 0.092913
0.502383 0.099873 0.436789
0.028941 0.349997 0.059448
0.344167 0.066404 0.421744
0.024762 0.326446 -0.072253
0.045339 0.477672 0.347705
-0.011086 0.339928 0.412706
-0.067018 -0.045927 -0.064158
-0.018657 -0.046164 0.013973
-0.008228 -0.040011 0.330977
-0.024374 0.266304 0.263422
-0.062327 0.057573 0.303269
0.247943 0.032728 0.085778
-0.102896 -0.070508 0.299750
-0.025317 0.216146 0.100964
0.515997 0.100375 0.418581
0.207854 0.019083 0.016598
0.365770 0.066712 0.275882
-0.053245 0.152608 0.310726
-0.049722 0.028821 -0.031464
0.230396 0.031455 0.293967
-0.067185 -0.030577 -0.087061
0.011007 0.330754 0.186137
0.219979 0.026500 0.416630
0.191047 0.018717 0.085879
-0.038134 0.271118 0.425069
0.049924 0.524906 0.354977
0.257012 0.031380 0.029124
-0.014015 -0.054348 -0.136474
0.447869 0.078503 -0.006332
0.173112 -0.001618 -0.101137
0.061882 0.501892 0.299582
-0.058187 -0.052709 0.108412
0.405943 0.077036 0.247927
0.384930 0.077138 0.423444
0.134547 0.016194 0.413265
-0.010205 0.260265 0.078326
0.350941 0.060881 0.161561
0.181885 0.017660 0.286536
0.442623 0.071879 -0.063277
0.054461 0.522408 0.232710
-0.089912 -0.028119 0.413507
-0.048563 0.219683 0.371313
-0.105411 -0.061514 0.336778
0.468288 0.086206 0.079281
0.263530 0.031067 0.378298
-0.066322 -0.021671 0.109659
-0.016508 0.196670 -0.060691
-0.050484 0.040458 0.056665
0.356125 0.052081 -0.073843
0.183453 0.011375 0.349916
0.070237 0.472039 0.059378
-0.047665 0.160170 0.306801
-0.036354 0.198845 0.234494
0.131309 -0.009075 -0.053001
0.518873 0.092496 0.095177
-0.053774 0.133188 0.310364
-0.010518 0.215631 -0.104903
0.165805 0.013432 0.209829
-0.060653 0.029504 0.094878
-0.048136 0.235133 0.422277
0.048678 0.392588 -0.074275
-0.061415 0.063220 0.267263
0.028043 0.354952 0.062778
0.414136 0.067065 -0.044637
0.138894 -0.003481 0.362760
0.175437 0.012873 0.417696
-0.036293 0.147750 0.410755
0.022141 0.346513 0.118943
-0.068062 -0.033885 -0.012780
0.118968 0.003082 0.412349
0.018855 0.323733 0.008797
0.400861 0.075024 0.173814
-0.064186 -0.012638 0.103387
0.069947 -0.021319 -0.012348
0.479643 0.085008 0.429910
-0.091159 0.005641 0.399929
0.140691 0.007301 0.195026
0.082253 -0.007753 0.190273
-0.042485 0.190028 0.419876
-0.052263 0.113721 0.247676
0.034685 -0.036809 -0.062224
-0.056716 0.091131 0.251015
-0.056434 0.016132 -0.110378
0.159872 0.011380 0.250843
-0.041001 0.083969 0.026133
0.235430 0.013762 -0.117874
0.223679 0.029676 0.257498
0.026162 0.330331 -0.072372
0.095510 -0.030295 -0.126044
-0.023947 0.233755 0.091975
0.272181 0.038550 0.071199
0.427146 0.080851 0.319913
0.008430 -0.036594 0.063884
-0.020313 0.208892 0.054018
0.126526 0.002284 0.158544
0.237716 0.034058 0.173572
0.280862 0.027636 -0.107647
0.442949 0.084286 0.234172
-0.051972 0.046390 0.038814
0.034385 -0.021323 0.212414
-0.067921 0.057683 0.412992
0.507787 0.102895 0.294143
0.091247 -0.022279 -0.073949
-0.037002 0.199819 0.302890
-0.054994 0.158029 0.367574
0.075439 0.496277 0.093089
-0.076228 -0.028282 0.231485
0.020525 -0.027313 0.181451
-0.029347 0.162134 0.060166
0.348615 0.055578 -0.006072
0.099271 -0.007837 0.325357
0.528483 0.083982 -0.077957
-0.050034 0.049865 -0.118817
0.032135 0.348389 -0.102036
0.071563 0.458478 -0.037780
0.022256 0.338871 0.063236
0.066776 0.510710 0.259810
-0.079042 -0.068019 0.008877
0.223424 0.026297 0.335219
0.256100 0.035811 0.331911
0.000568 0.261882 -0.031886
0.309715 0.049962 0.322767
-0.029827 -0.040685 0.229957
0.094233 -0.023768 -0.113100
0.051052 0.416662 0.082369
0.510751 0.092668 0.174787
-0.067643 0.058754 0.340504
0.029703 -0.036761 0.369661
-0.079949 0.014718 0.314791
0.319255 0.068694 0.420700
0.152177 -0.002182 0.375127
0.115973 0.000439 0.414454
-0.043648 0.049839 -0.052512
0.451327 0.071231 -0.095367
0.348043 0.063572 0.303234
0.024489 -0.030811 0.080770
-0.008937 -0.051648 0.383165
0.295242 0.044347 0.069724
0.054227 0.451202 0.182887
0.406300 0.065048 0.407421
0.114630 -0.014197 -0.063162
0.102553 -0.014294 -0.120702
-0.087666 -0.077616 0.000927
0.076734 -0.028917 0.401162
0.435198 0.076530 0.028749
-0.043097 0.062422 -0.010415
0.218759 0.020928 0.362302
0.128261 -0.008092 0.371331
-0.001696 0.251500 -0.108096
-0.037416 0.208645 0.225240
-0.028417 0.175524 0.057361
0.394368 0.068047 0.051701
-0.023145 -0.051961 -0.049495
