0.047497 -0.114825 0.312320
0.025872 -0.102629 -0.193111
-0.094717 0.053970 -0.182677
0.040045 -0.117798 0.184724
0.110886 -0.065328 -0.047196
0.062085 -0.098903 -0.175590
-0.054285 -0.107382 -0.186597
-0.049792 0.012291 -0.252716
-0.127834 0.035815 0.138296
-0.128543 0.029799 0.027829
-0.043397 0.050121 -0.299200
-0.056289 0.044770 -0.276147
-0.125416 0.026513 0.002926
0.016737 0.005050 -0.348499
-0.130380 0.034639 0.188630
-0.140501 0.031816 0.390521
-0.101844 0.101767 0.371454
-0.144245 0.011247 0.391785
-0.009073 0.037198 -0.216802
-0.085402 0.112937 -0.120711
0.033804 -0.077128 -0.201290
0.035425 -0.111583 -0.181241
-0.063754 0.021422 -0.289695
-0.091529 0.025187 -0.188587
0.100584 -0.068693 0.254525
-0.111970 -0.076057 0.222668
0.019093 -0.001781 -0.348178
-0.078817 0.124794 0.374726
0.017988 -0.135566 -0.047905
-0.045322 0.023020 -0.203131
-0.015904 -0.124259 0.164142
-0.129385 -0.037232 0.208411
0.046687 -0.137552 -0.132092
0.014781 -0.003948 -0.343747
-0.120862 0.069320 0.308030
-0.106266 0.089889 0.332369
-0.094233 0.101485 0.230146
-0.109657 0.086070 0.284303
-0.061680 -0.113742 0.346208
-0.127341 -0.020861 -0.016533
-0.095876 0.093271 -0.152903
0.008073 -0.125783 0.352101
-0.099188 -0.055867 -0.187905
-0.115431 0.062378 0.013409
-0.126372 -0.048433 0.170132
0.067692 -0.104602 0.142705
0.038107 -0.010030 -0.217899
0.106843 -0.058382 0.286391
0.007589 0.042739 -0.215005
0.025048 -0.122630 0.323406
0.060781 -0.113887 0.020015
-0.000084 -0.138054 -0.062171
-0.132521 -0.030445 0.250794
-0.078765 0.130911 0.398462
0.079632 -0.094604 0.136107
0.025502 -0.121335 0.107404
0.046445 -0.127131 -0.050112
0.087199 -0.093336 0.402571
-0.092995 -0.101603 0.180235
-0.124077 0.047844 0.079770
-0.132917 -0.044438 -0.134933
-0.122258 -0.042117 0.044139
-0.126495 0.042501 0.112328
-0.131102 -0.042227 0.322367
0.038931 -0.011242 -0.348138
-0.138559 0.003804 -0.121147
-0.124302 0.055054 0.174884
-0.061103 0.119707 0.045429
-0.083504 0.003073 -0.195507
-0.075968 -0.078859 -0.201567
-0.037949 0.055124 -0.312044
0.052849 -0.076004 -0.197445
-0.081597 0.001364 -0.197304
-0.102659 0.095187 0.315368
0.010804 -0.035219 -0.346376
-0.132120 -0.031009 0.266703
-0.083786 0.103903 -0.081080
-0.087728 0.097077 -0.064356
-0.129314 0.021915 -0.143151
-0.130583 -0.006366 -0.069690
-0.118109 0.074706 0.269817
-0.111084 0.083471 0.300750
-0.137995 -0.020064 -0.123754
0.036178 -0.022354 -0.347557
-0.134934 -0.014704 0.268346
-0.103209 -0.087368 0.164247
-0.022357 0.064664 -0.302812
-0.067463 0.121618 0.208243
-0.054078 0.027196 -0.343205
0.117867 -0.052463 0.336082
-0.081539 0.116280 0.281115
-0.121514 0.061806 0.191590
-0.135485 0.008658 0.292584
-0.136599 0.018638 0.263832
-0.147540 0.028319 0.421242
-0.136775 -0.025142 -0.131642
-0.083024 0.114135 -0.127330
0.108741 -0.058378 0.000367
-0.032166 0.044413 -0.341078
0.023365 -0.125510 0.396335
-0.012377 0.066655 -0.275993
-0.122373 0.066845 0.335465
0.110600 -0.055304 0.094856
-0.118162 0.061515 -0.055930
-0.079963 0.106326 0.151536
0.003885 -0.146431 -0.131598
-0.106521 0.079930 -0.155695
-0.128583 0.039013 0.068971
0.115735 -0.050256 0.315337
0.035984 -0.031251 -0.347160
-0.121818 0.052266 0.150567
-0.052131 0.096081 -0.180584
-0.131825 -0.008013 0.126779
0.004321 -0.024429 -0.343509
-0.054800 -0.031366 -0.318012
0.003457 -0.129677 0.065280
-0.136049 0.018272 0.285153
0.020740 -0.133178 -0.048104
-0.124914 0.042228 0.154804
-0.122126 0.053050 -0.061515
-0.012324 -0.096331 -0.201105
-0.083504 0.113470 0.281493
-0.138819 -0.037078 0.399915
-0.124196 0.064501 0.363152
-0.132869 -0.002812 0.118239
0.030514 -0.129461 -0.009468
-0.039332 -0.031564 -0.344531
-0.060627 -0.020561 -0.278024
-0.132208 -0.041135 -0.139777
0.008937 -0.131276 0.422378
-0.118387 -0.077942 -0.133426
-0.039327 -0.062848 -0.212926
-0.099461 0.095971 0.209987
-0.096404 0.093760 0.071036
0.095867 -0.098410 -0.133144
0.043397 -0.033625 -0.347261
-0.062741 0.024549 -0.283899
0.012068 -0.047512 -0.223070
-0.146346 -0.011250 0.413159
-0.059715 0.121081 0.028617
0.057848 -0.118679 -0.037943
-0.125866 0.030517 -0.011837
0.085723 -0.095115 -0.063462
-0.103782 -0.097291 0.379408
0.030686 -0.121670 0.313897
0.059213 -0.115481 -0.027548
0.012090 -0.130412 0.034757
-0.104746 0.047923 -0.178070
-0.083539 0.103331 -0.037832
-0.106671 0.088237 -0.142019
-0.040353 -0.119423 -0.181994
0.094819 -0.080501 0.014695
-0.059385 0.124093 0.160160
-0.090401 0.042677 -0.189133
-0.059438 0.122204 -0.080194
0.027545 -0.007308 -0.347719
-0.051254 0.048892 -0.305362
-0.118898 0.030997 -0.163376
-0.135260 0.021474 0.198474
-0.130169 0.024822 0.125378
-0.131230 0.028803 -0.096081
-0.124461 0.063872 0.330422
-0.051369 -0.013757 -0.211032
-0.003264 0.045774 -0.343178
0.078817 -0.103946 -0.036960
-0.062909 0.021413 -0.279349
0.103768 -0.063659 -0.004544
-0.140131 -0.014206 -0.120473
0.070977 -0.102220 0.136825
-0.129156 0.004108 -0.078146
-0.051356 0.039330 -0.199378
-0.082332 0.103727 0.146797
-0.067132 0.117680 0.059616
-0.093669 0.119350 0.393577
-0.016244 0.042977 -0.215701
-0.099280 0.069139 -0.174806
-0.078619 0.107947 0.074886
0.025207 -0.127091 0.033687
0.014834 -0.061342 -0.343016
-0.126200 0.046615 0.118908
-0.025396 0.063154 -0.306763
-0.059416 0.125974 0.182587
-0.023277 0.025949 -0.222043
0.008183 -0.077471 -0.346940
-0.063305 -0.099480 -0.191419
0.108494 -0.077480 -0.093500
-0.053809 -0.046107 -0.208962
0.033778 -0.095851 -0.193635
-0.020225 -0.124466 0.221690
-0.124267 -0.040624 -0.161152
-0.135511 -0.009264 0.199633
-0.137700 -0.024336 -0.136227
-0.091793 0.115826 0.358514
-0.066921 0.116804 -0.038898
-0.125240 0.085568 0.419669
0.108626 -0.060730 0.342931
-0.126293 0.056243 0.329163
-0.111415 0.067871 -0.047390
0.085869 -0.069526 -0.189697
-0.127870 0.020074 -0.019343
-0.041027 0.090201 -0.189737
-0.063521 0.090615 -0.180351
0.059178 -0.115054 -0.165438
0.000445 0.025011 -0.346839
-0.097475 0.088735 -0.022527
-0.074457 0.032618 -0.197348
-0.123976 -0.040514 0.029432
-0.018168 -0.124246 0.192775
-0.083570 -0.070102 -0.191798
-0.028356 -0.127796 0.076035
-0.067137 -0.123550 -0.068355
0.037618 -0.120335 0.376607
0.015200 -0.074921 -0.344874
0.090352 -0.089147 0.353431
-0.132970 0.047469 0.292553
0.108375 -0.058030 -0.161575
-0.019177 0.051385 -0.341866
-0.126398 0.029631 0.102669
-0.006298 -0.082615 -0.339320
-0.133573 -0.024653 0.226103
0.109701 -0.060814 0.247892
-0.097012 0.037308 -0.186548
-0.073215 0.122169 -0.114800
-0.028902 0.059560 -0.300178
-0.102949 0.079335 -0.060128
-0.073479 0.115989 0.183112
-0.085023 -0.090913 -0.185879
-0.132265 -0.013880 -0.152757
-0.133503 -0.035329 0.320710
0.103579 -0.066042 0.254265
-0.116933 -0.008709 -0.172009
-0.092436 0.093980 -0.154924
-0.129001 0.000633 -0.041219
-0.060561 0.030680 -0.321495
0.067793 -0.102686 0.231080
-0.061490 -0.031515 -0.204694
-0.041534 -0.049181 -0.212530
-0.084649 0.098777 -0.153017
-0.062094 0.125340 0.254979
-0.073915 0.110378 0.050794
-0.127456 0.019453 -0.030715
-0.093471 0.105824 -0.106832
-0.109292 0.084524 -0.119706
0.111309 -0.055881 0.053806
-0.131102 0.045681 0.279855
0.068070 -0.108760 -0.033476
0.110313 -0.055431 0.184503
-0.055650 -0.031176 -0.328296
-0.137691 0.003306 -0.105524
0.108635 -0.063227 -0.026064
-0.071449 -0.073208 -0.195273
-0.126099 0.033714 0.109240
0.091498 -0.074895 -0.182637
-0.128728 0.025029 -0.147978
-0.054923 -0.123348 -0.013828
0.088961 -0.053656 -0.187574
-0.058931 0.121120 -0.048178
0.109745 -0.055665 0.297992
-0.121893 0.048941 -0.062995
-0.114722 0.069910 0.108020
0.112674 -0.057123 -0.034234
0.101848 -0.094525 -0.138615
-0.058566 0.122094 0.049988
-0.052298 -0.114600 -0.172084
-0.108001 0.076279 0.018483
-0.107429 0.089281 -0.135743
-0.002898 -0.062333 -0.214644
-0.089899 -0.100053 0.206816
-0.098946 0.094324 0.187322
-0.052571 -0.124167 -0.029860
-0.129675 0.044056 0.256600
-0.125143 -0.044517 0.126995
-0.048352 0.047271 -0.296879
-0.038874 0.053860 -0.295496
-0.126777 0.029015 0.059118
-0.124293 -0.045099 0.109905
-0.034637 0.014740 -0.343575
-0.085226 0.102683 0.159253
-0.116480 0.064959 0.053075
0.011632 -0.132623 -0.167239
-0.113476 0.068188 0.003102
-0.055033 -0.021790 -0.205778
-0.129253 0.005566 0.004133
0.110252 -0.059831 -0.159214
-0.036288 -0.026921 -0.345024
0.109247 -0.058854 -0.004984
-0.122580 0.063251 0.209102
-0.140176 0.031332 0.352004
-0.033408 0.076697 -0.193617
-0.127050 0.048293 -0.092531
0.064644 -0.053441 -0.344865
0.098946 -0.096304 -0.150903
-0.099448 0.100930 -0.137201
-0.128244 -0.019835 0.044337
0.014794 -0.128977 0.394075
-0.043326 0.053169 -0.303710
-0.134762 -0.015413 -0.146168
-0.036949 0.030829 -0.206086
0.036407 -0.093591 -0.193815
-0.071330 0.120552 -0.116553
0.036610 -0.072115 -0.340937
-0.103266 0.087686 0.155306
0.107362 -0.076057 -0.148996
0.056681 -0.111583 0.177527
0.008558 -0.086910 -0.202285
-0.144584 0.006610 0.412314
-0.067912 0.115152 -0.066034
-0.064794 0.108052 -0.157549
-0.116660 0.069152 0.152637
-0.015024 -0.125682 0.327159
0.074536 -0.097555 0.213163
-0.106270 -0.078202 0.049309
0.106134 -0.056171 0.087011
-0.083887 0.110669 -0.133334
0.041767 -0.115891 0.327837
0.097585 -0.078458 0.331739
-0.120294 0.075138 0.364028
0.082438 -0.094384 -0.179470
0.092224 -0.104197 -0.142918
-0.072682 0.000994 -0.203250
-0.128050 -0.032938 0.099929
-0.043578 -0.120524 0.157918
-0.063530 0.038753 -0.338752
0.109846 -0.078700 -0.103820
0.022326 -0.144410 -0.122763
-0.131323 0.043347 -0.118583
-0.123531 0.039409 -0.043197
0.084076 -0.094966 0.366129
0.024493 -0.121049 0.118591
-0.063565 0.119645 -0.061973
-0.092383 0.096125 -0.023474
0.062587 -0.071049 -0.195617
-0.038411 -0.091085 -0.200827
-0.016719 -0.049472 -0.231746
-0.117220 -0.068504 0.304824
-0.123267 0.043717 -0.025632
-0.070823 0.123327 -0.121442
-0.132472 -0.007516 0.094662
0.030047 -0.122097 0.140402
-0.014103 -0.009198 -0.342910
-0.116537 0.047720 -0.159531
-0.062939 0.082696 -0.183284
-0.011650 -0.073318 -0.211526
-0.124002 -0.036224 -0.018215
0.068194 -0.020526 -0.325015
-0.122871 0.038317 -0.158421
-0.111974 0.072231 0.030679
-0.083623 0.102578 0.114570
0.059530 -0.110209 0.082426
0.011570 -0.141754 -0.088845
0.024568 -0.119516 0.183305
-0.000013 -0.141996 -0.148969
-0.100192 0.103604 0.343719
-0.059685 0.102595 -0.173551
-0.024590 -0.126946 0.089478
-0.021150 -0.094455 -0.202294
-0.052056 0.000963 -0.342082
-0.029580 0.067567 -0.329855
-0.113414 0.066140 0.046002
-0.134432 -0.019896 0.282691
-0.140330 0.026932 0.388834
-0.136071 -0.023609 0.320715
-0.059966 0.121737 -0.009155
-0.077289 0.121283 0.339901
0.039983 -0.128391 -0.004958
0.026810 -0.076758 -0.331066
0.062935 -0.110804 0.401748
0.060037 -0.112680 0.006758
0.013121 -0.077973 -0.325869
0.014521 -0.129941 0.412565
-0.072189 0.112567 -0.047720
-0.040349 -0.099802 -0.202276
-0.135339 0.030988 0.256089
-0.124469 -0.052154 0.287585
0.013293 -0.142613 -0.099217
-0.118902 0.046320 -0.152986
0.096492 -0.060862 -0.178114
-0.103517 0.087726 0.237229
-0.093647 0.119658 0.399109
-0.058685 -0.072987 -0.203545
-0.092048 -0.115693 -0.088003
-0.118832 0.067426 0.300639
-0.096351 0.089844 -0.050152
-0.110609 0.106053 0.411261
0.096527 -0.076048 0.263603
-0.032038 -0.124982 0.370969
0.017243 -0.094789 -0.197669
-0.123470 -0.045935 0.119996
0.092771 -0.082087 0.200113
0.101438 -0.066610 0.014246
-0.121443 -0.031595 -0.170987
0.044344 -0.070415 -0.331872
0.033742 -0.115838 0.257524
-0.134199 -0.001543 0.157663
-0.137929 0.015330 0.290879
-0.135956 -0.013779 -0.095817
-0.065688 0.117381 0.069477
-0.094929 0.090831 -0.018065
-0.060816 -0.039941 -0.207848
-0.044524 -0.000966 -0.216833
0.109622 -0.078295 -0.134140
-0.124478 0.060511 0.209459
-0.124540 0.050024 0.140723
-0.021934 -0.124828 0.173149
-0.032976 0.060969 -0.318862
-0.146685 -0.006203 0.420458
0.092431 -0.091499 -0.074314
0.069652 -0.102827 0.040835
-0.129869 -0.055268 -0.113166
-0.005272 -0.126418 -0.181210
-0.019274 -0.126523 0.391186
-0.067573 0.128013 -0.122054
-0.117845 0.065294 0.135821
-0.139330 0.002725 0.304084
-0.115176 -0.068750 -0.165261
0.057971 -0.051749 -0.325904
0.055866 -0.132707 -0.112554
-0.030703 -0.103559 -0.200127
-0.121787 0.062066 -0.107880
-0.070189 0.016581 -0.336096
-0.114696 0.095812 0.421532
0.010764 -0.037316 -0.346425
-0.073215 0.123045 0.283308
-0.133974 0.024632 0.187749
-0.099065 0.093306 0.247015
0.097915 -0.052762 -0.183223
-0.088582 -0.053802 -0.194172
0.058548 -0.109751 0.093503
-0.108191 0.092236 0.350731
-0.011205 -0.141194 -0.155810
-0.112696 -0.087452 -0.118411
0.001775 -0.080810 -0.204545
-0.119607 0.057877 -0.077952
-0.015900 0.038890 -0.217243
0.051219 -0.117331 0.405941
-0.070409 0.112950 -0.026962
-0.073880 0.114271 0.155571
-0.127394 0.041968 0.063694
0.090599 -0.103581 -0.102415
-0.116907 0.063180 0.003732
-0.060314 -0.024103 -0.339311
-0.110666 -0.057070 -0.175343
0.089828 -0.084686 0.200364
0.030923 -0.120903 0.199831
0.059085 -0.043782 -0.319126
-0.131080 -0.035898 0.220849
-0.088965 0.107608 -0.130999
-0.032835 -0.125308 0.095640
0.048052 -0.048041 -0.202571
-0.108195 -0.093054 0.382875
-0.119964 -0.064319 -0.155250
-0.066454 0.119869 -0.000069
-0.135626 0.065994 0.425598
-0.117995 -0.065394 0.191890
-0.118299 -0.053771 -0.049398
-0.082279 0.112999 -0.133633
-0.139370 -0.047072 0.424303
0.059980 -0.073300 -0.195432
-0.036381 -0.128016 0.035823
0.028933 -0.039219 -0.243616
-0.129499 -0.002129 0.029062
-0.122756 0.056287 0.119776
0.091947 -0.083523 0.296398
-0.120510 -0.076057 -0.120534
-0.126548 0.056089 0.312932
-0.127213 -0.024975 0.031101
0.009069 -0.044583 -0.232861
-0.082698 0.024866 -0.194458
0.071374 -0.102396 0.131197
0.054496 -0.117516 0.007185
-0.129534 0.010490 -0.152141
-0.004889 0.045452 -0.211429
0.062798 -0.033616 -0.312506
-0.089141 0.101767 0.161517
0.044150 -0.115406 0.167330
-0.041587 -0.113464 -0.187024
-0.083949 0.097706 -0.159267
0.107028 -0.061734 -0.010106
-0.068154 0.116689 0.038166
0.049977 -0.049864 -0.200167
-0.064758 0.099583 -0.171207
-0.099170 0.086268 -0.022214
-0.112974 0.064515 0.017945
-0.126610 0.031019 -0.016638
0.070960 -0.114803 -0.075305
-0.064278 -0.112086 0.283735
-0.103799 0.080978 0.022702
-0.127667 -0.057233 -0.137038
0.096942 -0.072921 0.052221
-0.115625 0.063458 -0.051513
0.001286 0.052010 -0.207896
-0.126059 0.053173 -0.135201
-0.105526 0.077376 -0.064523
-0.147870 0.033397 0.428544
0.087639 -0.066544 -0.184901
-0.023489 -0.000178 -0.224875
-0.059803 0.128286 0.259881
-0.000189 -0.130637 0.051978
0.079711 -0.116728 -0.116852
-0.105543 0.087061 0.281934
-0.061909 0.120446 0.002596
-0.060913 0.120847 0.209164
-0.136463 -0.012783 0.177320
0.047982 -0.120753 0.418586
0.060596 -0.126087 -0.150617
-0.065763 -0.004948 -0.204236
-0.017455 -0.125030 -0.183051
-0.099796 0.094438 0.177011
0.089595 -0.081550 0.066368
-0.039235 -0.067720 -0.213085
-0.072145 0.117751 0.013867
-0.112604 0.073940 -0.093703
-0.099236 -0.096851 0.133474
-0.031597 -0.131861 -0.036454
-0.115216 0.058168 0.011911
-0.011795 0.045483 -0.343143
0.084019 -0.086742 0.282352
-0.132494 -0.011766 0.142353
-0.087943 0.105238 0.232697
-0.097532 0.090968 0.076326
-0.064181 0.007134 -0.294021
0.000009 -0.124924 0.281181
0.013240 -0.074181 -0.304644
0.016891 -0.128725 0.018267
0.058517 -0.130408 -0.112743
-0.057117 0.034564 -0.278896
-0.098743 -0.101709 -0.006248
0.097347 -0.082206 -0.030495
-0.097426 0.067510 -0.176541
-0.100333 -0.008542 -0.188253
0.111802 -0.075784 -0.098869
-0.124302 -0.068376 -0.137377
-0.135049 0.060352 0.401602
0.046101 -0.116908 0.378849
0.080200 -0.092257 0.218448
-0.036887 0.061683 -0.343324
-0.095814 0.094403 -0.032684
-0.116854 0.073575 0.154188
-0.101901 0.087382 0.170669
-0.085724 0.102749 0.154148
-0.042934 0.091848 -0.187957
0.090678 -0.081391 0.258247
0.106059 -0.061285 0.078740
0.007505 0.022981 -0.346662
0.054263 -0.111658 0.110438
-0.069691 0.039682 -0.198185
-0.130983 0.008473 0.126092
0.006219 -0.135557 -0.036546
-0.080156 0.107189 0.048398
0.025453 -0.067204 -0.302909
-0.041512 0.016828 -0.343861
-0.062014 0.016572 -0.286943
-0.147020 0.008636 0.420008
-0.114335 0.083396 0.346450
0.062411 -0.105726 0.296076
-0.109670 0.072293 -0.008957
0.016455 -0.134839 -0.037330
0.027004 -0.125338 0.063315
0.073404 -0.099885 0.309924
-0.130710 0.003381 0.058880
-0.109684 0.075283 -0.155127
-0.100029 -0.012655 -0.189777
-0.048273 0.050332 -0.301394
-0.115009 -0.066588 0.102361
0.081262 -0.090504 0.122071
-0.129336 0.012763 -0.047989
-0.034786 -0.051124 -0.212116
-0.091991 -0.102026 0.157641
-0.116568 0.076151 -0.112201
-0.096440 -0.023464 -0.190160
0.022859 -0.019628 -0.219423
-0.125976 0.027280 0.014435
0.114251 -0.060994 0.394106
0.059821 -0.116560 -0.014458
-0.117004 0.079653 -0.121684
0.043093 -0.060712 -0.303763
-0.126161 0.025571 -0.056838
-0.107878 -0.077128 0.077956
-0.062710 0.120609 0.188463
-0.110798 -0.078070 0.264849
-0.061539 -0.120899 -0.037255
-0.075853 0.074957 -0.182787
-0.050854 -0.014364 -0.342359
-0.144866 0.026051 0.402413
-0.025819 0.064079 -0.300737
0.096466 -0.068874 0.168621
-0.065811 -0.107311 -0.181126
-0.112767 0.080811 0.311893
0.090996 -0.082558 0.049944
-0.128988 0.025976 0.021438
0.051902 -0.004714 -0.346451
-0.098435 -0.076255 -0.178620
0.063776 -0.020601 -0.291545
0.095065 -0.097018 -0.170490
0.043529 -0.129223 -0.151890
0.084785 -0.090222 0.183640
-0.016120 0.020087 -0.223158
-0.116942 0.061969 -0.023884
-0.122205 0.061136 0.153677
-0.108146 0.085211 0.195849
0.087428 -0.087509 0.189124
0.004779 -0.028591 -0.345147
-0.023810 -0.041628 -0.221678
-0.047947 0.011763 -0.341285
-0.072074 0.118671 0.177610
0.013231 -0.146290 -0.114514
-0.047379 -0.134037 -0.151339
0.084208 -0.094512 0.347930
-0.142607 0.024135 0.400321
-0.030549 -0.123097 0.328559
-0.024048 -0.125612 0.136658
0.060002 -0.130778 -0.135571
0.107944 -0.062681 0.003058
-0.034835 -0.053458 -0.338175
-0.088921 -0.103343 0.078916
-0.129147 -0.023578 -0.059828
0.030421 -0.120767 0.109738
-0.070101 -0.001525 -0.341994
-0.107517 0.084885 -0.148000
0.063164 -0.105448 0.272372
-0.099589 0.083454 -0.071896
0.062596 -0.014752 -0.284503
-0.064111 0.106938 -0.163808
0.063124 -0.024605 -0.288986
0.012425 -0.142181 -0.094037
0.073479 -0.098502 0.111588
-0.136163 0.031446 0.234974
-0.135339 0.035542 0.263008
0.040855 -0.050763 -0.204611
-0.040569 0.052821 -0.321976
-0.123906 0.033292 0.004124
-0.087287 0.101582 0.182041
-0.102998 0.082088 0.131527
-0.084411 0.102331 0.044161
-0.038389 0.059472 -0.343055
0.112542 -0.066782 -0.146886
-0.071669 0.017541 -0.340272
-0.008598 -0.134478 -0.003751
0.064490 -0.103559 0.193982
-0.076474 0.067659 -0.190186
-0.092335 0.104903 0.317200
0.026347 -0.121714 0.287580
-0.082887 0.105608 -0.141063
-0.134406 -0.019271 0.212031
-0.087397 0.073526 -0.181157
0.040239 -0.118388 0.089570
-0.139158 0.002487 0.325692
-0.085195 0.126586 0.395819
-0.118462 0.067320 -0.097460
-0.039019 -0.127994 -0.001553
-0.024757 -0.068882 -0.269933
0.069180 -0.115270 -0.153709
-0.049118 0.033573 -0.202699
0.010231 -0.121471 -0.182135
-0.065943 -0.122617 -0.149401
0.096827 -0.094093 -0.165658
-0.124773 0.063880 -0.121688
-0.128865 0.019259 0.111839
0.037305 -0.121414 0.401140
0.030893 -0.132513 -0.048901
-0.091097 0.028284 -0.193322
-0.085138 0.127604 0.412459
-0.143232 -0.018293 0.381602
0.093453 -0.083637 -0.019664
0.063816 -0.105342 0.254714
0.019939 -0.129302 0.415128
-0.120012 0.045241 -0.016365
0.064054 -0.105325 0.248852
-0.107948 0.086374 -0.130889
-0.059099 -0.115684 0.133751
-0.120708 0.074266 0.325872
-0.131671 0.004694 0.114424
-0.129768 -0.007027 -0.064986
0.012804 -0.123436 0.161649
-0.090701 0.107427 0.306048
-0.111943 0.082736 -0.123996
0.095285 -0.074238 0.231684
-0.121813 0.037599 -0.153898
0.042630 -0.121079 0.409852
-0.050832 -0.039624 -0.339611
0.065247 -0.104369 0.057440
-0.114506 0.094769 0.399268
0.058715 -0.124308 -0.152969
0.100192 -0.070838 0.046539
0.007664 -0.095472 -0.199651
-0.081601 0.114373 -0.111836
0.017525 -0.132637 -0.008433
0.063507 -0.107421 0.046728
0.005453 -0.137900 -0.065166
-0.132675 -0.029604 0.191220
0.082579 -0.091746 0.309118
0.069828 -0.101748 0.153778
-0.116317 0.062718 -0.078547
0.076787 -0.042042 -0.196868
0.042322 -0.103669 -0.189138
0.023202 -0.124092 -0.172974
0.050928 -0.111852 0.300107
-0.036033 0.050852 -0.341923
0.040133 -0.124687 0.016351
-0.060156 0.053759 -0.199880
-0.140885 -0.015276 0.364693
-0.070378 -0.023684 -0.201809
0.052267 -0.117252 0.047614
-0.123597 0.061652 0.274644
0.112529 -0.051899 0.075511
-0.105143 0.091981 0.299609
-0.097320 0.093086 0.115015
0.002079 -0.078563 -0.277781
0.019661 -0.030947 -0.218943
-0.121796 0.022241 -0.164306
0.027140 -0.127915 0.017421
0.088415 -0.093561 -0.027209
0.111696 -0.056325 0.078273
-0.090894 0.098292 0.025301
-0.130111 -0.014118 0.014699
-0.138198 0.019761 0.221642
-0.036729 -0.139010 -0.141759
-0.104249 0.084718 0.084148
-0.131393 0.012163 -0.150383
0.046868 -0.115446 0.336346
-0.087745 0.097918 -0.053173
-0.128314 -0.024010 0.081180
-0.122822 -0.041588 0.039228
-0.074801 -0.066249 -0.196291
-0.099430 0.062198 -0.171494
-0.074056 0.117412 -0.093985
-0.043666 0.055164 -0.199303
-0.086027 0.094910 -0.169710
-0.120963 -0.001222 -0.166962
-0.132120 -0.012101 0.147453
-0.060002 -0.113270 0.251107
0.072352 -0.101070 0.064985
0.033152 -0.139798 -0.126058
0.005281 0.007164 -0.344852
-0.102632 0.090364 0.308347
-0.126777 -0.033775 0.027983
-0.120193 -0.048301 -0.166292
-0.126760 0.026703 -0.034282
-0.057289 -0.028798 -0.310106
-0.125861 -0.030493 -0.042404
-0.134507 -0.018879 0.168625
-0.077919 -0.097018 -0.183439
-0.041965 -0.048983 -0.299376
0.091740 -0.104127 -0.125300
0.044084 -0.020487 -0.212917
0.035275 -0.122524 0.059902
-0.104257 0.081463 0.099454
0.026281 -0.131725 -0.165684
-0.043428 0.018546 -0.342051
-0.062653 0.004711 -0.312149
-0.021793 -0.130959 0.040144
-0.093555 -0.080744 -0.177805
-0.117422 0.070452 0.169903
-0.129046 -0.023367 0.016470
0.115330 -0.069477 -0.119438
-0.109384 0.029812 -0.175427
-0.114771 -0.014527 -0.175299
-0.109265 -0.070878 0.026380
-0.128429 0.012912 0.000513
0.074276 -0.104003 -0.057401
-0.012561 -0.006890 -0.343174
0.026440 -0.013792 -0.349089
-0.144646 0.016317 0.404584
-0.109274 0.079820 0.151250
-0.118523 0.077358 0.336337
0.017023 -0.037765 -0.233385
0.113145 -0.053145 0.268152
-0.040058 -0.009797 -0.238948
-0.045489 -0.121661 0.408874
-0.091480 0.099169 0.156755
0.045692 -0.114429 0.227288
-0.056333 0.131096 0.329365
-0.001180 -0.019927 -0.343914
-0.131107 -0.042333 0.327784
0.044604 -0.117419 0.306612
-0.077976 0.120372 0.318253
-0.141396 -0.000583 0.369763
-0.081782 0.012683 -0.198986
-0.128979 -0.042200 0.211996
0.084239 -0.099220 -0.037379
0.071449 -0.107888 0.416344
-0.027858 -0.132051 -0.010300
-0.093242 -0.018637 -0.190693
-0.047154 0.000558 -0.339968
0.055456 -0.108632 0.258423
-0.129147 0.014872 0.083360
-0.054901 0.038172 -0.344579
-0.085367 0.045699 -0.191450
0.015777 -0.050494 -0.242749
0.077809 -0.100687 0.372780
0.073492 -0.108196 -0.054781
0.050845 -0.131095 -0.152418
-0.074431 0.114338 -0.002086
0.066181 -0.108218 0.000957
0.063177 -0.105325 0.134729
0.057843 -0.085443 -0.187772
-0.085393 -0.092292 -0.175960
-0.117334 -0.074762 0.362830
-0.060275 0.125556 0.221161
-0.045604 0.004169 -0.209024
