-0.130865 0.153348 0.209005
-0.078571 -0.016641 0.389494
-0.061270 -0.010964 -0.076693
0.274665 -0.051437 -0.146983
0.031791 -0.075991 -0.168869
-0.078130 0.007393 -0.078816
-0.086190 0.019338 0.016395
0.036094 -0.072336 -0.190094
0.061367 -0.092045 0.216581
0.114022 -0.094129 0.017082
0.352346 0.089144 0.026613
-0.021560 -0.043892 -0.074010
-0.003960 -0.063474 0.077255
0.196283 -0.085496 -0.196630
-0.054611 -0.004446 -0.229998
0.008483 -0.077608 0.334223
0.348302 0.084202 0.079462
-0.072977 0.007367 -0.168212
0.242345 -0.071926 -0.128595
0.098382 -0.096084 0.103215
0.330795 0.079807 0.326322
0.349840 0.040400 -0.205483
0.117915 -0.093450 -0.156823
0.004096 -0.068394 0.018126
-0.025907 -0.052696 0.086456
0.109631 -0.097423 -0.103542
-0.014645 -0.057338 0.003054
-0.119149 0.086946 0.047023
0.049783 -0.077123 -0.204672
0.126213 -0.100066 -0.136743
-0.016755 -0.064394 -0.116112
0.058165 -0.088566 0.003798
-0.101487 0.045166 0.027340
-0.021088 -0.053885 0.104603
-0.118779 0.071231 0.223861
-0.113872 0.061934 0.065262
-0.016693 -0.052797 -0.013471
-0.040622 -0.037276 -0.006878
-0.123813 0.195441 -0.189464
-0.002066 -0.066112 0.120498
0.115762 -0.092737 -0.006940
0.120844 -0.096758 0.183468
-0.074254 -0.002107 -0.108907
-0.132248 0.142398 0.000733
0.160678 -0.091112 -0.047368
-0.022234 -0.055356 0.319323
-0.108331 0.044585 0.210793
0.099333 -0.107144 0.360262
-0.114621 0.077318 -0.160500
0.136454 -0.093547 -0.186966
0.115938 -0.100458 0.276049
-0.004898 -0.064055 -0.006354
-0.101139 0.056481 -0.167345
-0.133415 0.162474 0.054229
-0.110159 0.056084 0.017822
-0.108398 0.068782 -0.193511
-0.121245 0.096046 -0.009014
-0.077562 0.014031 -0.219868
-0.113322 0.069690 -0.076794
0.349778 0.060969 0.052555
-0.093559 0.073081 -0.231535
0.052699 -0.080810 -0.189680
0.064481 -0.090389 -0.092047
-0.129182 0.192609 -0.132673
-0.106913 0.055591 -0.154453
0.041952 -0.087800 0.264942
0.067586 -0.098745 0.337650
-0.039931 -0.042579 -0.052195
-0.102822 0.042995 -0.019078
0.331072 0.068694 0.301208
-0.017935 -0.057673 0.296468
0.027228 -0.089975 0.343406
0.143880 -0.092310 -0.045866
-0.134230 0.184606 0.091385
-0.071634 0.001721 -0.029715
-0.128609 0.184778 0.242105
-0.107988 0.052305 0.054784
-0.097536 0.036529 0.031788
-0.057315 -0.019015 -0.016141
0.005594 -0.073904 -0.013546
-0.042432 -0.037734 -0.026130
0.017089 -0.069274 -0.169327
0.332905 0.063079 0.228658
0.045634 -0.088782 0.177690
0.013808 -0.065914 -0.084594
0.035064 -0.072961 -0.181545
0.028695 -0.079299 -0.049892
0.338111 0.008636 -0.177647
-0.116383 0.065184 0.050318
0.059306 -0.089037 0.052793
-0.112348 0.056410 0.054824
0.161828 -0.089927 -0.077759
-0.029047 -0.055731 -0.127515
-0.135326 0.168195 0.121463
-0.091418 0.037471 -0.165517
0.085864 -0.091918 0.110267
-0.126795 0.217018 0.175725
0.164664 -0.095014 -0.146375
0.112265 -0.094917 0.068878
-0.087018 0.033278 -0.193829
-0.131367 0.139800 0.335069
0.127548 -0.095256 0.105492
0.340700 0.086123 -0.230588
-0.128129 0.164200 0.232137
-0.132221 0.125164 0.179258
-0.049220 -0.022702 -0.168463
-0.020881 -0.069200 0.415727
0.048462 -0.087051 0.074547
0.212879 -0.080915 -0.158562
-0.128684 0.190107 -0.088347
0.016182 -0.078762 0.208248
-0.100633 0.038075 -0.143922
-0.129658 0.116029 0.326952
0.183308 -0.088469 -0.012762
-0.000031 -0.063434 0.272041
0.081803 -0.091865 0.000473
0.097787 -0.091922 -0.162002
0.261108 -0.061404 -0.126141
0.214844 -0.079678 0.143018
0.251119 -0.064302 -0.079441
0.098950 -0.096441 0.230481
0.351394 0.076085 0.037017
0.243398 -0.070640 -0.137760
0.191007 -0.087143 -0.183474
-0.128900 0.259728 0.103206
0.154516 -0.097269 0.218453
-0.012368 -0.059184 -0.039717
-0.129653 0.200233 0.257229
0.189518 -0.088570 0.229728
-0.048163 -0.046715 0.397638
0.073624 -0.098251 0.303648
-0.127759 0.227646 0.336778
-0.128636 0.111488 -0.144116
-0.073127 -0.002354 0.067328
-0.064375 -0.012224 0.054586
0.346294 0.023012 -0.140046
-0.076505 0.007988 -0.087840
-0.108424 0.050508 0.141758
0.229973 -0.077436 0.340244
0.351060 0.048386 -0.233468
-0.058500 -0.022010 -0.111492
-0.103597 0.043889 -0.054618
-0.025167 -0.049525 -0.009107
-0.113101 0.071544 -0.007887
0.114916 -0.097947 0.218012
-0.036843 -0.037946 0.089566
-0.075219 -0.005780 -0.147194
-0.097448 0.076865 -0.231614
0.050814 -0.089042 -0.081423
-0.115515 0.061744 0.307563
0.055104 -0.085056 0.052806
0.357856 0.068390 -0.217701
0.191364 -0.091530 -0.116068
-0.134190 0.188200 0.045596
-0.117995 0.071932 0.109276
0.083178 -0.109011 0.397211
-0.039644 -0.040883 0.130069
-0.103222 0.048945 0.032476
-0.138048 0.124428 0.404443
-0.114066 0.087431 -0.184368
-0.028369 -0.063174 0.409645
-0.077862 0.025478 -0.230051
-0.131847 0.161368 0.004322
-0.089489 0.025756 -0.050310
0.343634 0.023487 -0.057582
-0.134811 0.095689 0.392445
0.356085 0.084581 -0.081485
-0.074505 -0.002287 0.252525
-0.131107 0.237794 0.068486
0.165730 -0.094745 0.227671
0.045150 -0.084408 -0.101983
-0.099073 0.031499 0.066029
-0.063904 0.000065 -0.204813
-0.003964 -0.054824 -0.178409
-0.036777 -0.039523 -0.093117
-0.101540 0.040924 -0.103256
-0.059966 -0.019236 0.064236
-0.039939 -0.023808 -0.232138
-0.088335 0.015330 0.220135
0.057416 -0.089257 -0.150670
-0.082072 0.004663 0.118239
-0.098470 0.026958 0.267875
0.135463 -0.096274 0.042918
-0.004409 -0.062703 0.232692
-0.082887 0.023109 -0.181056
-0.119598 0.075314 0.199611
0.064344 -0.088839 0.119040
-0.027431 -0.049296 0.091755
-0.081918 0.009116 -0.041704
-0.133899 0.171683 0.067486
0.299686 -0.037382 0.363869
-0.118691 0.045523 0.381747
-0.060587 -0.019650 0.036832
0.137577 -0.099559 -0.104586
0.013887 -0.075071 0.008643
-0.134102 0.177819 0.012510
0.348725 0.038040 -0.201127
-0.041494 -0.026635 -0.206976
0.004682 -0.069442 0.252195
-0.124584 0.252306 -0.014119
0.328901 0.065233 0.365222
0.126539 -0.107276 0.350947
-0.034548 -0.046389 0.307660
-0.102949 0.044836 -0.098521
0.018041 -0.095842 0.413358
0.097880 -0.093860 -0.231108
0.030611 -0.063976 -0.207117
0.172469 -0.097595 0.323538
0.225295 -0.083034 0.377721
-0.112005 0.058141 0.060025
0.012790 -0.074793 0.080140
-0.125896 0.123072 -0.157056
0.337767 0.056305 0.212612
0.008417 -0.065055 -0.186892
0.066251 -0.091733 0.013836
-0.036821 -0.037501 0.202412
-0.130895 0.176405 -0.137650
-0.115202 0.039423 0.384284
0.032077 -0.090077 0.332215
-0.063952 -0.011929 0.082263
-0.131063 0.138430 0.137830
-0.127627 0.112254 -0.032419
-0.048898 -0.027749 -0.086264
0.243437 -0.068389 -0.231883
0.109551 -0.095741 0.164014
0.206229 -0.082994 -0.207531
0.154362 -0.093468 0.009815
0.344876 0.038705 0.081162
-0.086512 -0.015078 0.394952
-0.084984 0.011710 -0.006015
0.065604 -0.083514 -0.063893
-0.117902 0.079049 -0.053045
0.261390 -0.060303 0.339852
0.167791 -0.102726 0.360593
-0.136617 0.186927 0.374515
-0.122752 0.148639 -0.218498
-0.091661 0.023016 -0.024694
0.018071 -0.077246 0.028238
-0.119158 0.212728 -0.216353
-0.126390 0.256649 0.025961
-0.057782 -0.016545 0.003252
0.088432 -0.093080 0.123264
-0.117788 0.078098 0.089310
-0.090850 0.018237 0.198430
-0.097188 0.342245 0.396903
-0.112494 0.063647 -0.001214
-0.131569 0.147983 0.278225
0.038953 -0.095798 0.352709
-0.083024 0.018550 -0.226338
-0.017094 -0.054687 -0.025562
0.059962 -0.090442 0.011035
0.279602 -0.045834 0.303789
0.008161 -0.070569 0.037827
0.270683 -0.056572 0.363795
0.155587 -0.091904 0.092283
-0.110318 0.053015 0.261462
0.154406 -0.097282 0.282273
-0.055421 -0.024728 0.114860
0.152252 -0.095591 0.048983
0.304417 -0.028895 0.322710
-0.134974 0.166534 0.193466
-0.052140 -0.017113 -0.163953
0.088881 -0.092843 0.115578
-0.077840 0.006574 0.070349
0.043304 -0.088421 0.228935
-0.004065 -0.059779 0.258049
-0.079910 0.000967 -0.149282
-0.054760 -0.027384 0.293694
0.115251 -0.094058 0.164617
-0.086107 0.010829 -0.124587
-0.005312 -0.049675 -0.231491
0.071493 -0.094648 0.217250
-0.099716 0.028121 0.282048
0.064225 -0.097221 0.346256
-0.030364 -0.046019 0.268302
0.090348 -0.098714 0.162138
-0.132838 0.123772 0.350964
0.178393 -0.084373 -0.203382
0.087525 -0.087782 -0.171040
-0.117065 0.062881 0.322027
0.325118 -0.021090 -0.172604
0.154591 -0.092984 0.087051
-0.131908 0.130537 -0.116174
0.301422 -0.030634 0.051542
-0.012984 -0.052322 -0.165790
0.236923 -0.075080 0.332069
-0.132886 0.149071 0.143868
-0.005805 -0.055722 -0.204316
0.165140 -0.090658 0.139499
-0.127429 0.266832 0.116688
0.076095 -0.093759 0.007150
-0.042177 -0.035713 -0.014035
-0.114203 0.064378 0.190749
0.053368 -0.096014 0.319169
0.016362 -0.076890 0.057713
-0.130354 0.155092 -0.154079
0.189950 -0.086117 0.021808
-0.019111 -0.052775 -0.025557
-0.117836 0.085898 -0.087664
-0.011584 -0.059105 0.164838
0.229748 -0.070437 -0.012837
0.158123 -0.093930 -0.148771
-0.083015 0.006169 0.216801
0.105482 -0.095265 0.004283
-0.109045 0.051671 0.247421
-0.107217 0.043087 0.246588
-0.130561 0.254923 0.116107
0.046890 -0.078555 -0.172538
0.032478 -0.089235 0.338178
-0.104605 0.044739 0.115385
0.089480 -0.099502 0.319354
-0.014284 -0.068561 0.395264
0.133688 -0.100365 0.274733
0.044723 -0.080453 -0.161852
0.160277 -0.091658 -0.159791
0.027307 -0.080277 -0.040717
-0.116511 0.122490 -0.214221
-0.131679 0.145261 -0.030688
-0.017058 -0.048582 -0.087796
0.148817 -0.103083 0.356131
0.243142 -0.065055 -0.029358
0.358754 0.088629 -0.190803
0.210069 -0.080770 0.190634
0.039662 -0.091565 0.326996
-0.019032 -0.054537 0.117569
0.154283 -0.112209 0.409266
0.116118 -0.097740 -0.066395
-0.027695 -0.041386 -0.198409
0.307716 -0.010590 0.366050
0.121527 -0.107884 0.341689
-0.128508 0.142539 -0.094676
0.093127 -0.099004 0.202465
-0.013473 -0.053471 -0.015652
-0.045634 -0.037060 -0.023967
-0.125601 0.132440 -0.201254
-0.071999 -0.008714 0.135865
-0.133379 0.178589 0.329762
0.209272 -0.085558 -0.101644
-0.008355 -0.037104 -0.233239
0.046696 -0.079827 -0.057939
-0.130913 0.227452 -0.000122
0.129371 -0.096807 0.176117
0.160643 -0.095274 -0.128493
-0.025585 -0.051238 0.056528
-0.011408 -0.058012 0.000861
-0.109666 0.083802 -0.206108
-0.132609 0.157052 0.051397
-0.134824 0.195370 0.372339
-0.096162 0.026037 0.302111
-0.089529 0.013049 0.301124
-0.050818 -0.026120 0.232490
0.017234 -0.080079 -0.152515
-0.133851 0.173176 0.335100
0.341379 0.015088 0.071490
-0.128217 0.162478 0.085113
0.022793 -0.079378 0.160605
0.347430 0.037951 -0.078970
-0.027404 -0.044720 0.207913
-0.071444 -0.014818 0.310858
-0.047726 -0.031150 0.276869
-0.133454 0.177290 0.083228
0.119360 -0.096150 0.056770
0.018322 -0.091231 0.401827
0.118092 -0.094714 -0.021316
-0.077192 0.001086 -0.144671
0.345946 0.075931 0.108034
-0.032276 -0.044059 0.183213
0.102007 -0.096252 -0.048438
-0.122311 0.092888 -0.054763
0.353570 0.065611 -0.024033
0.338463 0.067615 0.184895
0.226225 -0.074833 0.263246
-0.114832 0.147454 -0.231363
0.022564 -0.076647 0.023794
-0.101562 0.055944 -0.230209
0.138374 -0.104400 0.352224
-0.078478 0.017660 -0.194066
0.045344 -0.083192 -0.018303
0.297453 -0.034590 -0.231667
0.006941 -0.069548 0.115821
0.269111 -0.064566 0.407843
0.058689 -0.082025 -0.193763
0.128433 -0.095631 0.013030
0.015979 -0.069904 -0.160712
-0.099170 0.036850 -0.002482
-0.081438 0.007332 -0.104207
-0.002171 -0.068350 0.299618
0.002462 -0.069495 0.027626
0.033637 -0.079268 -0.011732
-0.061653 -0.015470 0.012708
0.209052 -0.079176 0.013078
0.145928 -0.094952 -0.151423
0.170090 -0.100246 0.349256
0.341951 0.017497 -0.064854
-0.121074 0.196498 -0.164491
-0.083490 -0.013114 0.383465
0.039534 -0.074767 -0.226254
-0.015808 -0.062672 -0.111426
0.047286 -0.087597 0.245967
0.026805 -0.081986 0.124101
-0.088666 0.039656 -0.219454
0.150790 -0.101070 0.310100
-0.039001 -0.036853 0.154157
0.179036 -0.100903 0.370419
-0.032518 -0.013845 -0.233499
0.102002 -0.091332 -0.166195
0.142589 -0.098445 -0.138262
0.152970 -0.098780 0.299045
-0.086256 0.014229 -0.106321
-0.076985 -0.005481 -0.131779
-0.020674 -0.055427 -0.106735
-0.044595 -0.034893 0.114746
-0.065978 -0.015228 -0.118275
-0.114084 0.261080 -0.208213
-0.125249 0.098578 0.147898
0.067018 -0.074172 -0.229390
-0.046595 -0.031599 0.191348
-0.120906 0.082132 0.258247
-0.101439 0.041567 -0.011895
0.087591 -0.092081 0.052287
-0.133018 0.170362 0.039606
0.041503 -0.082188 -0.065444
0.040080 -0.101880 0.399757
0.042199 -0.067645 -0.227985
0.340366 0.019083 0.097128
0.231167 -0.071199 0.099899
-0.076320 0.014934 -0.200532
0.003127 -0.042892 -0.230835
0.138541 -0.093239 0.016245
-0.130006 0.084387 0.391507
-0.112776 0.078684 -0.085471
0.090163 -0.096150 -0.151537
-0.121730 0.092263 -0.040541
-0.036072 -0.044174 -0.068249
-0.084050 0.022527 -0.221991
-0.130252 0.126247 -0.007503
0.061407 -0.096674 0.319882
-0.076584 -0.014364 0.321983
0.149742 -0.094098 0.014400
-0.057575 -0.022037 -0.091038
0.104019 -0.093384 -0.024483
-0.051902 -0.019333 -0.034705
0.088023 -0.094992 -0.044549
-0.032183 -0.059695 0.388539
0.061266 -0.091490 0.230318
0.331275 -0.016095 -0.153436
0.080909 -0.096199 -0.086832
0.007928 -0.076062 -0.020682
0.036292 -0.079612 0.000438
0.004092 -0.071301 0.034938
-0.102698 0.135567 -0.231046
-0.042296 -0.033414 0.210516
-0.130120 0.234499 0.035237
0.128323 -0.101704 -0.130004
0.183766 -0.088967 0.114724
0.058015 -0.081255 -0.165561
-0.114132 0.068355 -0.138588
-0.053333 -0.021363 0.025028
-0.121082 0.079128 0.317773
0.355883 0.081709 -0.014714
-0.085834 0.020259 0.043566
0.328408 0.048055 0.279683
-0.136599 0.095403 0.401338
0.020247 -0.082444 0.285955
-0.116061 0.089360 -0.184394
-0.010073 -0.047305 -0.229522
-0.034465 -0.056554 0.394736
0.073893 -0.090473 0.041461
-0.015834 -0.053004 -0.176854
-0.126341 0.150168 -0.174304
-0.093233 0.044994 -0.184967
0.217345 -0.079030 -0.001324
-0.129539 0.187279 0.276027
-0.131807 0.119922 0.353581
0.128143 -0.097190 -0.077327
-0.134644 0.198273 0.079277
0.002726 -0.066112 0.208375
0.344158 0.018043 -0.208760
-0.104046 0.043017 0.151871
0.027052 -0.082360 0.244580
-0.097109 0.008785 0.361139
-0.127654 0.108559 0.013453
0.150918 -0.089989 -0.216912
-0.134877 0.195613 0.110227
-0.131094 0.163077 -0.160720
0.342669 0.014542 -0.174929
-0.007197 -0.064967 0.293808
-0.123364 0.225457 -0.118116
0.306786 -0.026358 0.296737
-0.119607 0.102098 -0.192939
0.121197 -0.090099 -0.169807
-0.045009 -0.029225 0.024979
0.235509 -0.069561 0.236229
0.033791 -0.080277 -0.088818
0.058138 -0.089275 0.160217
0.217297 -0.078678 0.232014
-0.124738 0.213878 -0.127608
0.250313 -0.063025 0.196193
-0.039142 -0.034387 0.102475
0.323889 0.035802 0.402739
0.020423 -0.078471 -0.022241
-0.050581 -0.022953 -0.039629
-0.087648 0.010358 -0.115738
0.096770 -0.094490 0.067764
-0.131446 0.159470 0.034022
0.195477 -0.091094 -0.134193
0.094801 -0.094261 -0.128965
0.071916 -0.085998 -0.180373
0.083059 -0.095428 -0.131876
-0.047933 -0.034356 -0.109396
-0.020745 -0.051216 -0.032640
0.335763 0.008186 0.120802
-0.082363 0.020906 -0.172419
-0.013874 -0.053172 -0.008494
-0.059610 -0.019253 -0.056410
0.082891 -0.098079 -0.086836
0.138634 -0.092094 0.114235
0.167069 -0.088416 -0.225272
-0.094841 0.029794 0.127629
-0.134287 0.192573 0.360267
-0.118611 0.072931 0.073498
0.048484 -0.089059 0.196708
0.060548 -0.087733 0.050529
0.346779 0.066734 0.108456
0.120827 -0.104003 0.324600
-0.122029 0.084026 0.094666
-0.107754 0.054486 -0.004046
-0.117431 0.065140 0.284889
0.358556 0.090721 -0.150493
-0.017173 -0.054004 0.143798
-0.038777 -0.029903 -0.163874
-0.125311 0.139923 -0.158778
0.002392 -0.067292 0.252222
-0.086301 0.015599 -0.050896
-0.113053 0.055547 0.289844
0.185176 -0.087201 0.076498
-0.114233 0.054186 0.341662
-0.028118 -0.053956 -0.122860
0.330337 0.073486 0.358787
-0.122122 0.118209 -0.177136
0.331759 0.034247 0.178306
-0.016697 -0.059444 -0.149000
-0.085494 0.001914 0.329022
-0.009822 -0.062465 0.024790
-0.014398 -0.055445 0.277208
-0.129460 0.123292 0.242281
0.015195 -0.076612 0.249618
-0.020652 -0.053291 0.146163
0.162299 -0.097516 -0.142041
0.241794 -0.067411 0.214661
-0.126425 0.118619 -0.074662
-0.128711 0.132973 -0.050376
-0.068925 -0.015902 0.316742
-0.080971 0.010521 -0.164156
0.328218 0.044545 0.268588
0.212708 -0.075974 -0.233715
-0.106085 0.050649 -0.009071
-0.093828 0.022571 0.296165
-0.111815 0.110880 -0.207703
0.181982 -0.089927 -0.003205
-0.067366 -0.026212 0.374352
0.010672 -0.075489 -0.101454
0.005845 -0.074432 0.291135
-0.111815 0.049280 0.181209
-0.028017 -0.052225 0.073697
-0.124447 0.097847 0.098313
0.132860 -0.095089 0.015778
-0.076324 0.006112 -0.022575
-0.038900 -0.036968 0.012581
0.025612 -0.082263 0.139547
0.051074 -0.091041 -0.122301
-0.115572 0.074376 -0.064964
0.009210 -0.077947 0.319741
-0.010293 -0.062276 0.032101
-0.132723 0.161002 -0.122019
-0.027153 -0.060739 0.370969
0.345691 0.057023 0.098516
0.048656 -0.086650 0.003217
-0.036975 -0.039800 0.041813
-0.100892 0.048253 -0.075107
-0.125126 0.163020 -0.194159
0.016477 -0.077771 0.157531
-0.129543 0.198647 0.251499
0.036891 -0.085196 0.104122
0.054007 -0.088839 0.170480
0.033214 -0.066500 -0.228311
-0.073065 0.002866 -0.064920
-0.133437 0.113087 0.382465
-0.026114 -0.047116 -0.088360
0.004981 -0.044671 -0.230821
-0.081491 0.013084 -0.074010
-0.123285 0.206615 -0.157642
-0.112366 0.059317 0.045107
-0.131794 0.182862 -0.057806
-0.106988 0.045294 0.230217
-0.129675 0.146270 -0.075825
0.056808 -0.082924 -0.170075
0.190813 -0.085809 0.084496
0.178379 -0.089530 0.013721
0.341898 0.020030 0.076507
-0.071836 -0.009638 -0.118293
-0.117761 0.073597 0.114631
0.075192 -0.112275 0.414190
0.323616 0.034322 0.408839
0.348241 0.036582 -0.040629
0.186404 -0.092442 -0.132175
0.082812 -0.091843 0.084532
-0.087529 0.030235 -0.204769
-0.039675 -0.035889 0.061831
-0.105627 0.045003 0.123110
-0.105292 0.029856 0.327784
0.138101 -0.100260 0.292051
-0.114925 0.070562 -0.104520
-0.111498 0.052477 0.241739
-0.030214 -0.048864 0.284924
-0.024352 -0.049952 0.054291
0.334010 0.022060 0.146731
-0.072365 -0.002327 -0.046628
0.152230 -0.099621 0.265056
-0.127905 0.147635 0.112539
-0.048665 -0.032365 0.101806
-0.084235 0.016048 -0.038938
-0.116942 0.084867 0.047006
-0.099866 0.325270 0.336831
0.210893 -0.080338 0.217845
0.064710 -0.095402 0.266302
-0.121333 0.161276 -0.202933
-0.126169 0.123234 -0.079093
-0.002872 -0.063637 0.062302
-0.077734 0.006883 0.098295
-0.031509 -0.037047 -0.191974
0.137176 -0.089134 -0.212860
-0.006201 -0.072846 0.356770
0.018763 -0.078612 -0.105625
0.354918 0.069514 -0.220017
0.129244 -0.100418 0.271553
-0.134978 0.172767 0.095754
-0.032958 -0.050159 0.345120
-0.118893 0.085660 0.019663
0.053633 -0.101907 0.395106
0.144879 -0.099938 -0.124732
-0.004026 -0.062404 -0.044012
0.193544 -0.087628 0.105025
-0.088688 0.021629 -0.146358
-0.106697 0.051627 -0.044831
-0.122346 0.083537 0.272372
0.302435 -0.033797 -0.229628
0.173913 -0.096062 0.320882
0.023370 -0.066905 -0.184011
-0.111820 0.037722 0.354585
0.082966 -0.096397 0.201822
0.092304 -0.094089 -0.162350
0.140704 -0.097939 0.231041
0.225265 -0.088689 0.404144
0.096704 -0.095380 0.040315
0.076373 -0.096710 0.264461
0.350144 0.048469 -0.166975
-0.122324 0.087854 0.176382
-0.123329 0.105855 -0.079864
0.142404 -0.094825 -0.162641
-0.115991 0.072998 0.191520
-0.101835 0.054358 -0.171886
-0.122448 0.186588 -0.225052
-0.091617 0.017867 0.284383
-0.015455 -0.061280 -0.063444
0.178736 -0.088989 -0.015405
0.072567 -0.093050 0.016642
-0.095611 0.054547 -0.212851
0.056848 -0.089491 0.097815
0.029126 -0.081008 0.163675
-0.062816 -0.016994 0.071737
0.163585 -0.092266 0.057356
-0.094088 0.021787 0.212154
-0.129455 0.252993 0.123986
0.198495 -0.085236 -0.028874
-0.086358 0.013154 -0.062775
-0.072550 -0.003847 0.082347
-0.127456 0.119028 0.131161
-0.125795 0.108555 0.125114
0.359032 0.071553 -0.120768
0.171997 -0.087134 -0.216555
0.148258 -0.096388 -0.137976
0.037138 -0.082818 0.002631
-0.087402 0.013978 0.206398
-0.069286 -0.002930 -0.020430
-0.038257 -0.023098 -0.213010
0.096646 -0.093138 -0.159910
0.222816 -0.077934 -0.205293
-0.086904 0.013172 0.171308
0.103517 -0.090486 -0.196603
-0.130776 0.245480 0.089509
0.071704 -0.090063 0.106699
0.064965 -0.082241 -0.184852
-0.065617 -0.006340 -0.041739
0.186004 -0.087672 0.246113
-0.078985 0.002416 0.110531
-0.105253 0.312304 0.261295
0.024189 -0.069319 -0.175440
-0.109494 0.046655 0.252389
-0.129288 0.111153 0.154091
-0.047854 -0.039844 0.327388
-0.066820 -0.032308 0.400673
-0.022921 -0.052269 0.019764
-0.131208 0.158994 0.168758
-0.098082 0.032094 0.135425
0.118158 -0.096908 0.086817
0.303597 -0.031471 -0.133642
-0.108992 0.056093 -0.138945
-0.041036 -0.038893 0.122383
0.223199 -0.075841 -0.080102
-0.058738 -0.027749 0.290399
-0.130398 0.239093 0.144560
-0.118827 0.251650 -0.082229
-0.076012 0.008547 -0.187896
-0.079918 -0.008489 0.319512
-0.054791 -0.033255 0.362790
0.124707 -0.095124 0.029961
0.078681 -0.096696 -0.141086
0.309508 -0.019998 0.282326
-0.121558 0.194212 -0.169067
-0.126108 0.113465 -0.056080
0.061010 -0.094076 -0.085678
0.176111 -0.093605 0.295499
0.042789 -0.080951 -0.003971
-0.099910 0.037366 0.004767
0.005061 -0.056612 -0.227078
-0.077760 0.004870 -0.069751
0.242970 -0.065883 -0.000135
-0.060698 -0.023310 0.302207
0.006836 -0.046455 -0.230804
0.158198 -0.098044 0.279683
0.189347 -0.088187 0.172893
-0.106468 0.038498 0.271363
0.269181 -0.051141 -0.050464
0.334125 -0.013109 -0.070227
0.173019 -0.090548 -0.065664
-0.110014 0.057767 -0.125428
-0.067357 -0.036664 0.412195
0.177217 -0.085615 -0.201228
-0.049880 -0.032502 -0.109400
0.155965 -0.100414 0.319173
0.048761 -0.090218 0.254159
-0.049352 -0.028824 -0.028257
0.311653 -0.013356 0.290707
-0.071907 0.008569 -0.219793
0.223129 -0.077740 -0.198660
0.347893 0.029905 -0.217093
-0.048607 -0.024983 -0.159835
0.082979 -0.095763 -0.138584
0.011051 -0.071926 0.192299
0.171553 -0.091984 -0.091395
0.169157 -0.095741 0.211445
0.300809 -0.027895 0.381382
-0.104222 0.065162 -0.215071
0.110882 -0.095164 -0.064211
0.001453 -0.085179 0.403857
0.018847 -0.077343 0.247121
-0.027510 -0.049754 0.127638
0.179758 -0.089046 0.174911
-0.020683 -0.053273 0.188644
-0.113498 0.078556 -0.162606
0.164400 -0.091407 0.070023
-0.067198 0.001826 -0.168164
0.090943 -0.096357 0.216105
0.128438 -0.092279 -0.046663
-0.101390 0.029059 0.325124
-0.054448 -0.025776 0.164529
0.070872 -0.089768 0.036356
0.200565 -0.083681 0.017465
-0.113996 0.154383 -0.231328
-0.068163 0.000368 -0.194317
-0.118942 0.075380 0.106950
0.087190 -0.097269 -0.084224
0.209250 -0.089508 0.376303
0.134397 -0.093631 -0.001042
0.073554 -0.104990 0.387724
0.016926 -0.077586 -0.012934
0.332645 0.040251 0.207891
-0.051831 -0.023843 0.089698
-0.044511 -0.029212 -0.074579
-0.116925 0.062590 0.223060
0.107666 -0.094503 -0.062022
-0.013729 -0.058030 -0.053746
0.036847 -0.086575 0.225768
-0.099465 0.063700 -0.232019
-0.132292 0.163200 -0.117315
-0.123994 0.112910 0.048785
0.238407 -0.073507 0.329348
0.125954 -0.093807 0.027675
-0.117286 0.276020 0.375612
-0.087886 0.017008 0.253609
0.071871 -0.096538 0.275288
-0.125328 0.221903 -0.063620
0.008003 -0.074128 0.154478
0.253198 -0.064720 -0.144578
-0.100280 0.053354 -0.165239
0.245437 -0.062421 -0.231975
-0.131891 0.128467 0.296301
0.059090 -0.090319 0.032916
-0.126394 0.133801 0.116768
