-0.057183 -0.030132 -0.420291
-0.111437 -0.091913 0.353286
-0.087225 -0.085699 -0.157201
-0.031558 -0.116657 -0.103692
0.027796 0.007636 -0.549751
-0.103117 0.000809 -0.334013
0.030395 -0.129963 -0.113769
-0.104759 -0.039003 -0.279984
-0.124813 0.001047 -0.204197
-0.114656 0.080278 -0.206861
0.053452 -0.041350 -0.550147
0.040631 -0.088350 -0.354560
-0.037270 -0.125686 0.053489
-0.127843 0.012366 0.093380
-0.018653 0.071333 -0.471977
0.052276 -0.043619 -0.548222
-0.039825 0.004328 -0.449387
-0.103614 0.008226 -0.333101
0.092255 -0.075705 -0.300090
-0.012676 -0.061703 -0.400678
-0.067736 -0.094644 -0.131418
-0.079425 -0.087870 -0.131233
-0.128768 0.042902 -0.058564
-0.012874 -0.093657 -0.302600
0.015865 -0.050895 -0.545294
0.028805 -0.041593 -0.429911
-0.129768 0.052217 0.013105
-0.016869 -0.139049 0.170132
-0.073889 -0.124061 0.017047
0.001136 -0.111372 -0.263471
0.012319 -0.117032 -0.258657
0.059244 -0.106853 -0.184187
0.005580 -0.116120 -0.256614
-0.096180 -0.082889 0.087456
-0.014191 -0.099480 -0.265180
-0.035909 -0.082303 -0.345125
0.004400 -0.047904 -0.548896
0.011385 0.051403 -0.413037
0.006311 -0.043641 -0.469493
-0.039442 -0.059391 -0.386192
-0.120074 0.009706 -0.244792
-0.059949 0.041405 -0.531794
-0.132146 -0.061360 0.385777
0.024608 -0.025217 -0.541585
-0.065926 -0.004406 -0.422485
-0.113833 -0.053322 -0.184333
0.049598 -0.041698 -0.537370
0.055091 -0.080730 -0.359625
-0.047550 0.030455 -0.424625
-0.095937 -0.101180 0.126819
-0.048057 0.045690 -0.423251
-0.069960 -0.123114 0.136389
0.054126 -0.063853 -0.392266
0.064736 -0.001829 -0.416688
0.007439 -0.140626 0.183741
-0.038918 -0.115587 -0.035243
-0.003092 -0.009898 -0.544192
-0.062226 -0.024569 -0.410875
-0.059671 -0.129976 0.319046
0.024550 0.046870 -0.544157
-0.054791 -0.140758 0.373819
-0.137264 -0.049996 0.396986
0.032373 -0.116129 -0.195291
0.004083 0.065893 -0.545051
-0.137181 0.056565 0.333479
0.093475 -0.067041 -0.322746
0.039384 -0.126695 0.062835
-0.009580 -0.127360 -0.121917
0.089128 -0.036025 -0.373582
-0.101795 -0.106712 0.370146
0.110855 -0.069107 -0.246180
-0.025713 -0.127871 0.122176
-0.016283 -0.110218 -0.257407
0.036724 -0.083518 -0.372728
0.058896 -0.113728 -0.157510
-0.069057 -0.096881 -0.079754
0.078469 -0.099313 0.096098
0.067586 -0.030771 -0.518343
0.041846 -0.015082 -0.435606
-0.021560 -0.041672 -0.481962
0.095329 -0.105008 -0.111184
-0.133428 0.038211 0.128532
0.044723 -0.044733 -0.533503
-0.107279 -0.046332 -0.252165
-0.038186 -0.130606 0.250310
0.035213 -0.038642 -0.467463
-0.034637 -0.035307 -0.486494
-0.045370 -0.110249 -0.074834
0.019838 -0.057449 -0.548676
0.020379 -0.136975 0.248112
-0.056976 -0.082695 -0.292461
-0.131715 0.025760 0.003389
-0.063204 0.095456 -0.296196
-0.059526 -0.101480 -0.185421
-0.143571 -0.031132 0.365147
-0.099016 -0.021852 -0.331991
-0.119325 -0.045777 -0.203637
0.030633 -0.142806 0.247879
-0.121527 0.014846 -0.214415
0.003933 0.054472 -0.419045
0.012597 -0.096186 -0.272263
0.074109 -0.105977 0.151814
0.055311 -0.035669 -0.521421
-0.049713 -0.144203 0.180786
-0.001449 -0.140935 0.303383
-0.080636 -0.027269 -0.368799
0.004951 -0.130126 0.056427
-0.129178 -0.054414 0.098485
-0.047550 -0.105470 -0.121252
0.066670 -0.052621 -0.399639
-0.072246 -0.039364 -0.369772
0.016208 -0.058193 -0.546773
0.061327 -0.045913 -0.414909
-0.089119 -0.112905 0.076520
-0.005285 -0.151034 0.388733
-0.019556 -0.123326 -0.032278
-0.072277 -0.094292 -0.118826
0.010342 -0.081096 -0.369508
0.090709 -0.077075 -0.232332
-0.124764 -0.015844 0.066266
-0.085746 0.084947 -0.277235
-0.028602 -0.106853 -0.260296
0.031360 -0.075044 -0.392684
-0.043472 -0.109438 -0.098186
0.050867 -0.093944 -0.321808
0.050660 -0.049895 -0.413738
-0.022062 -0.128470 -0.033490
-0.022414 -0.002019 -0.547443
-0.116136 -0.084677 0.295218
-0.123417 -0.070684 0.090200
-0.086913 -0.047041 -0.320412
0.071955 -0.081043 -0.332877
-0.066287 -0.112372 -0.010062
0.009681 -0.132782 0.001076
-0.144677 0.055935 0.392040
0.009637 -0.035426 -0.459548
-0.059491 -0.044522 -0.387980
-0.088961 -0.107483 0.106082
0.057804 -0.016875 -0.415438
0.023639 -0.071274 -0.408677
0.019071 -0.144586 0.016091
-0.138599 -0.040615 0.363821
0.088789 -0.075617 -0.309837
-0.073699 -0.051965 -0.338955
-0.080200 -0.107540 -0.002227
-0.070801 -0.097877 -0.111558
-0.050823 -0.118265 0.070547
-0.129521 -0.061901 0.357492
-0.122641 -0.076163 0.358514
0.091238 -0.064725 -0.334414
0.098126 -0.062029 -0.311449
-0.018688 -0.126867 0.074600
-0.110877 -0.028459 -0.278900
0.065586 -0.118353 -0.002509
0.010311 -0.100035 -0.263353
-0.127654 -0.027243 -0.090897
-0.129147 -0.048728 0.282546
-0.059204 -0.104206 -0.106471
0.076646 -0.108813 0.174752
-0.089842 -0.099163 -0.025971
-0.027448 -0.135702 0.161059
0.090269 -0.091719 -0.217154
-0.072167 0.118398 -0.081401
-0.081376 -0.014844 -0.376555
-0.086904 -0.120828 0.384509
-0.059359 -0.128126 0.328771
-0.018076 0.073878 -0.489172
-0.040552 -0.031189 -0.426105
0.058279 -0.108227 -0.171872
0.030192 -0.082673 -0.370719
-0.126015 -0.062104 0.074617
0.052937 -0.040232 -0.517537
-0.137625 -0.014963 0.297134
-0.017235 -0.139252 0.175932
0.025030 -0.116922 -0.208473
-0.089692 -0.084606 -0.123811
0.108948 -0.092781 0.337474
0.082667 -0.100837 0.034695
-0.016354 -0.109461 -0.180562
0.038741 -0.116794 -0.169736
-0.036002 -0.104215 -0.176277
-0.090392 -0.083034 -0.107991
0.019939 -0.141793 0.036034
0.004862 0.031041 -0.542695
0.044996 -0.004851 -0.540995
0.030417 -0.137874 0.023878
-0.064124 -0.061650 -0.341945
-0.050942 -0.141133 0.383601
-0.072413 -0.108853 -0.009944
-0.094044 -0.060391 -0.270325
-0.095625 -0.056453 -0.272254
0.005646 -0.011057 -0.542572
0.012931 -0.032220 -0.429778
0.049145 -0.024768 -0.543250
0.058526 -0.030749 -0.412857
-0.091467 0.003672 -0.368033
0.030007 -0.026965 -0.450898
0.023048 -0.066293 -0.417191
-0.010082 -0.035422 -0.462887
-0.000031 -0.131306 -0.034740
0.098144 -0.096221 0.060845
0.017393 -0.134125 -0.012115
-0.144897 -0.023684 0.366371
-0.120690 -0.048600 -0.030085
-0.048321 -0.119992 0.081730
-0.026717 0.011732 -0.547231
-0.050862 -0.023605 -0.542955
-0.005783 -0.123634 -0.164473
0.014513 -0.039730 -0.464186
0.094294 -0.090323 -0.158893
-0.126623 -0.049829 0.171827
-0.143457 -0.017179 0.339504
0.100861 -0.103418 0.355069
-0.081795 -0.090777 -0.029024
-0.014521 -0.093292 -0.269056
-0.071101 0.001254 -0.413081
-0.002132 -0.133429 0.088945
0.083125 -0.016302 -0.533639
-0.108050 -0.072419 -0.030649
-0.067066 -0.115345 -0.018871
0.017195 -0.133821 -0.001192
0.057597 -0.027899 -0.412848
-0.083499 -0.089143 -0.090161
-0.135551 -0.026736 0.270813
-0.053245 -0.129373 0.023464
0.045225 -0.127298 -0.027416
-0.081130 -0.075357 -0.254636
-0.123791 -0.046807 -0.030037
-0.066732 0.112118 -0.207918
-0.081702 0.039907 -0.384267
-0.130279 0.006922 -0.106467
0.063886 -0.070838 -0.369464
-0.002105 -0.055960 -0.541065
-0.122756 -0.059633 0.132487
0.009963 -0.117366 -0.202294
-0.022833 -0.022579 -0.433086
0.079821 -0.103153 0.164322
0.001361 -0.123603 -0.067884
-0.005026 -0.095820 -0.271135
-0.081597 -0.110090 0.049670
-0.132340 0.046831 0.150136
0.088930 -0.094468 0.160658
-0.021436 -0.116142 -0.146639
-0.030946 -0.043174 -0.543589
-0.001634 -0.121881 -0.067827
0.052690 -0.091059 -0.335431
0.056949 -0.089491 -0.332590
-0.070044 0.100741 0.223853
0.021886 -0.134231 0.245743
-0.056681 -0.071851 -0.321685
-0.046969 -0.028899 -0.541048
-0.022634 -0.132046 0.101586
-0.050585 -0.022129 -0.538493
0.060891 0.002870 -0.542312
-0.069524 -0.095490 -0.113602
-0.003176 -0.133663 0.111592
-0.033139 -0.108443 -0.136007
-0.041168 -0.096551 -0.262058
0.081064 -0.115904 0.232838
-0.088441 -0.099506 0.001314
-0.025515 -0.120894 -0.114355
0.045449 -0.113424 -0.218718
-0.139114 0.011164 0.220056
0.082231 -0.111777 -0.096107
-0.036394 -0.141481 0.278741
-0.024912 0.088845 -0.379815
-0.121126 -0.003120 -0.219506
-0.064177 -0.015725 -0.421362
0.059460 -0.040170 -0.414887
-0.125126 0.057445 -0.163279
-0.045326 0.044038 -0.423247
0.032782 -0.095463 -0.330322
0.041212 -0.116274 -0.253874
-0.029532 -0.096961 -0.282904
0.017525 -0.145110 0.353889
-0.117079 -0.071750 0.276173
-0.099531 -0.105201 0.351713
0.013751 -0.033488 -0.456888
-0.084468 -0.110262 0.244183
0.054602 -0.036994 -0.412266
-0.006347 -0.121445 -0.044179
0.067947 -0.104413 -0.178122
-0.018948 -0.107871 -0.252368
-0.008355 -0.030674 -0.455588
-0.060993 0.073504 -0.362624
-0.135291 -0.028023 0.111399
-0.038490 0.101838 -0.326741
-0.072620 0.069042 -0.350151
-0.017147 -0.109601 -0.235384
0.045181 -0.109258 -0.121909
0.030210 -0.119212 -0.175881
0.017094 -0.117146 -0.194181
0.054139 -0.113975 -0.116835
-0.044533 -0.099850 -0.181294
-0.082182 -0.088905 -0.190230
-0.070907 0.024906 -0.417428
0.068581 -0.087139 -0.322090
0.069828 -0.082157 -0.254015
0.089458 -0.093838 0.143476
0.089458 -0.092402 -0.172220
-0.036046 -0.106761 -0.135959
0.082508 -0.061360 -0.344332
0.062600 -0.109491 -0.239014
0.044198 -0.048538 -0.542831
-0.098259 0.007992 -0.351609
-0.034209 -0.112341 -0.149630
-0.011945 -0.042302 -0.430091
0.001004 -0.115636 -0.227527
0.018582 -0.124008 -0.124054
0.032919 -0.137248 0.099806
-0.047956 -0.060853 -0.370874
-0.131459 0.022148 0.055330
-0.073325 -0.127069 0.278322
0.088150 -0.094816 -0.170146
-0.007844 0.070901 -0.542290
-0.040543 -0.120317 0.018157
0.000467 -0.149523 0.379985
-0.021445 -0.091548 -0.317184
0.010663 -0.101599 -0.290092
-0.123069 -0.076507 0.314725
-0.066472 -0.047618 -0.361162
0.104900 -0.069464 -0.276544
-0.063803 -0.105034 -0.048914
0.013557 -0.087747 -0.360933
-0.072189 -0.070781 -0.294228
-0.124848 -0.031898 -0.133153
-0.093264 -0.110174 0.142639
0.062107 -0.110769 -0.249038
-0.114189 -0.085892 0.090918
0.005986 -0.039602 -0.551037
0.039199 0.000664 -0.538533
0.097950 -0.063293 -0.227522
-0.000093 -0.150184 0.386152
-0.027717 -0.127721 0.006895
0.059218 -0.136407 0.365094
0.020943 -0.026988 -0.545549
-0.048105 -0.002230 -0.463992
-0.134115 -0.003701 -0.015255
-0.025559 -0.059981 -0.396758
-0.053734 -0.012413 -0.526989
0.029576 -0.072261 -0.399309
0.046762 -0.141666 0.378889
-0.122619 -0.078119 0.348727
0.057046 -0.134931 0.254543
-0.125786 -0.024979 0.039448
0.005254 -0.048217 -0.427466
-0.016724 -0.104823 -0.266255
0.091471 -0.093380 -0.028794
0.103786 -0.080713 -0.229566
-0.055941 -0.056118 -0.370816
0.086327 -0.035294 -0.401251
0.023255 -0.141882 0.211507
-0.098492 0.100261 -0.179461
0.031029 -0.145106 0.370701
-0.084746 -0.059488 -0.291109
-0.104795 -0.054951 -0.208901
-0.004391 -0.132020 -0.032574
0.040891 -0.129223 0.119106
-0.130459 -0.007190 -0.058604
0.070180 -0.026833 -0.542787
-0.006734 -0.134174 0.091226
-0.068405 -0.038681 -0.371715
-0.072360 -0.100542 -0.059524
0.050946 -0.023896 -0.541303
0.038032 -0.036704 -0.431161
0.086516 -0.078585 -0.257327
-0.085296 -0.090667 -0.077428
-0.079870 -0.019901 -0.379392
-0.030567 -0.016637 -0.428387
0.071607 -0.081884 -0.337721
-0.031390 -0.042518 -0.532798
-0.107226 -0.019073 -0.308489
-0.016552 -0.127479 0.024459
-0.005752 -0.099841 -0.295857
-0.039975 -0.032793 -0.530217
0.040750 -0.114173 -0.194309
-0.042970 -0.134178 0.304194
-0.083984 -0.072895 -0.249593
0.094118 -0.059210 -0.333586
-0.057156 -0.067680 -0.335242
-0.119981 0.021285 -0.235759
-0.053492 -0.010964 -0.522501
0.087476 -0.071732 -0.328410
-0.110653 -0.009083 -0.302574
-0.036438 -0.139120 0.139173
-0.088908 -0.067314 -0.207104
0.046255 -0.118512 -0.044549
-0.058266 0.028293 -0.501875
0.068282 -0.104651 -0.205712
-0.030734 -0.089064 -0.315157
-0.115290 -0.064372 0.000103
-0.054509 -0.118274 0.127215
-0.129821 0.058815 0.207657
0.056399 -0.114363 -0.045681
-0.075245 -0.094252 -0.172912
0.061732 -0.010735 -0.416054
0.002510 -0.078255 -0.390372
-0.075646 -0.097155 -0.093566
-0.074180 -0.030436 -0.380317
-0.099584 0.102626 -0.019219
-0.088948 -0.104880 0.120961
-0.119624 -0.050327 -0.117742
0.009086 -0.040236 -0.428602
-0.021088 0.090470 -0.375745
-0.014922 -0.138464 0.229737
-0.019450 -0.125827 0.019002
0.065432 -0.015540 -0.414081
-0.060988 -0.040672 -0.389888
-0.090599 -0.111672 0.313756
-0.042670 -0.006379 -0.430298
-0.123593 -0.026358 0.050525
0.011108 -0.115649 -0.209376
-0.136793 -0.017011 0.281568
-0.017785 -0.133725 -0.015189
0.033130 -0.032713 -0.542118
-0.066194 -0.125717 0.064813
0.006831 -0.117582 -0.217498
-0.030470 0.063568 -0.540955
-0.065133 -0.095305 -0.120962
0.061719 -0.139693 0.399378
-0.136960 0.065462 0.288981
-0.035319 -0.142582 0.334254
-0.006941 -0.018108 -0.550310
-0.078324 0.054776 -0.372213
0.022467 -0.084087 -0.366786
-0.081843 -0.121727 0.372071
-0.096981 -0.060717 -0.241352
-0.025259 -0.016197 -0.452836
-0.058161 0.011591 -0.507666
-0.059046 -0.049521 -0.379396
-0.053404 -0.092389 -0.259966
-0.088467 -0.043130 -0.322332
0.114890 -0.080744 -0.112395
-0.072413 -0.023169 -0.402277
-0.001048 -0.095128 -0.273135
0.067141 -0.111350 0.135927
-0.131807 0.077023 0.251865
0.014460 0.013903 -0.539013
-0.118422 0.010292 -0.256860
-0.030122 -0.143035 0.315949
0.080583 -0.083007 -0.263190
-0.119144 -0.069226 0.264298
0.056588 -0.047600 -0.431360
-0.100100 -0.076383 -0.091936
0.020362 -0.087650 -0.358136
-0.139779 -0.035250 0.355290
-0.094995 -0.110932 0.210071
-0.044626 -0.107157 -0.121301
-0.064521 -0.009542 -0.425233
0.093158 -0.092323 -0.151625
-0.127773 -0.013880 -0.138157
-0.019785 0.062233 -0.432610
-0.083490 -0.113389 0.157469
0.058275 -0.126356 0.187767
-0.118259 -0.070076 0.082272
0.024396 -0.122581 -0.044413
0.074096 -0.129483 -0.101481
0.007897 -0.135883 0.241237
0.054606 0.003258 -0.424572
0.090119 -0.095763 -0.021201
-0.025603 0.095975 -0.359739
-0.019609 -0.045816 -0.491088
-0.003515 -0.096142 -0.304649
-0.006281 0.059507 -0.544338
0.049004 -0.021042 -0.429025
-0.124923 -0.057008 0.164767
-0.096682 0.003998 -0.349640
-0.070907 -0.027049 -0.400357
-0.055465 0.002425 -0.508309
-0.030342 -0.132099 0.253732
-0.050867 -0.134319 0.141701
-0.038195 -0.116789 -0.056833
0.000401 -0.050375 -0.479390
0.070550 -0.118322 0.249557
0.023264 -0.128254 -0.101045
-0.022119 -0.144700 0.319424
0.031928 -0.048552 -0.503940
-0.129517 0.005715 -0.117028
0.056355 -0.115054 -0.061779
-0.067450 0.110114 0.025411
-0.037689 -0.121943 0.023614
0.057588 -0.133478 0.269958
-0.110313 -0.062122 -0.185531
-0.091176 -0.085157 0.064883
-0.128618 -0.065526 0.331876
0.070872 -0.057964 -0.386056
-0.046780 -0.131610 0.165961
-0.039684 -0.137270 0.139243
-0.014499 -0.137957 0.129844
-0.040613 -0.137094 0.316205
0.117440 -0.077009 -0.149859
0.045048 -0.062236 -0.406329
-0.016314 -0.001349 -0.547725
-0.133736 -0.020927 0.200073
-0.025497 -0.095459 -0.279931
0.057341 -0.011563 -0.426581
-0.013883 -0.046266 -0.481993
-0.002383 -0.089949 -0.336713
-0.037878 -0.117459 -0.067571
0.095422 -0.076101 -0.273461
-0.110569 -0.103708 0.382676
0.035213 -0.142410 0.251354
-0.075259 -0.049124 -0.345707
0.085609 -0.068631 -0.335206
0.104632 -0.065548 -0.261807
-0.009113 -0.093834 -0.309476
-0.089423 -0.107470 0.111777
0.009399 -0.148752 0.260026
-0.127116 0.057159 0.075137
0.048251 -0.116508 -0.250950
-0.055839 -0.055044 -0.366029
-0.126403 0.028271 0.104607
-0.059385 -0.121471 0.114623
-0.046718 -0.094137 -0.266973
-0.043617 -0.135226 0.227812
0.089780 -0.108500 0.208071
-0.099932 -0.054476 -0.255284
-0.086049 -0.100801 0.012264
0.030073 -0.032009 -0.431091
-0.123610 -0.034488 -0.154052
-0.085530 -0.108033 0.060919
-0.130037 0.050566 0.179949
0.025739 -0.113552 -0.177796
-0.029642 -0.122022 -0.117535
-0.131856 0.014837 -0.033661
-0.097065 0.098856 0.284502
-0.073757 -0.090728 -0.126075
-0.001506 -0.021856 -0.546390
-0.041019 -0.017681 -0.429149
-0.021450 -0.093966 -0.276962
-0.064071 -0.060637 -0.337105
-0.011434 -0.052595 -0.517506
0.019838 -0.077180 -0.386800
0.015940 -0.100520 -0.320465
-0.059389 -0.043403 -0.383224
0.049167 -0.130685 0.315619
0.032091 -0.117270 -0.205487
-0.110890 0.065827 -0.251584
-0.030479 -0.045658 -0.520078
-0.075276 -0.065830 -0.312792
-0.011201 -0.146669 0.360606
-0.036152 -0.064888 -0.372873
0.035398 -0.101255 -0.283415
-0.126790 -0.078612 0.389332
-0.087732 -0.110368 0.074335
0.097990 -0.092552 0.080352
-0.058324 -0.096978 -0.221942
-0.068859 0.004667 -0.421692
0.079905 -0.066575 -0.356401
0.107125 -0.081105 0.055352
-0.062820 0.108977 0.097296
-0.021269 -0.141582 0.145881
0.070718 -0.083351 -0.330903
-0.005849 -0.129501 0.126506
0.106508 -0.092336 0.119238
-0.123210 -0.063095 0.289531
-0.104614 -0.100000 0.184666
0.088472 -0.095234 -0.225219
-0.040697 -0.093151 -0.297575
0.032787 -0.046010 -0.494876
0.016798 0.045404 -0.545663
-0.045969 -0.130285 0.026732
-0.091339 -0.108465 0.080035
-0.126557 -0.027732 -0.135184
-0.123751 -0.040011 0.070473
-0.038010 0.011617 -0.432725
-0.085931 -0.061778 -0.289163
-0.018362 -0.041456 -0.428131
0.017869 -0.117199 -0.216538
-0.003519 -0.055748 -0.513035
-0.049616 -0.068341 -0.348812
-0.039481 -0.131293 -0.024853
0.024687 0.001051 -0.539603
-0.111736 -0.053943 -0.206839
0.023872 -0.093433 -0.344720
-0.020534 -0.068213 -0.376824
-0.111437 0.074451 -0.218300
0.011993 -0.115226 -0.226567
0.021282 0.011886 -0.539449
-0.104874 -0.085478 0.169845
-0.127420 0.040422 0.052961
-0.122456 -0.044319 -0.032168
0.013226 -0.108571 -0.264489
-0.136203 0.069835 0.335549
0.041036 -0.113094 -0.184073
0.031835 -0.132597 0.075128
0.093792 -0.090213 -0.237723
-0.041182 0.113796 -0.263833
-0.098919 -0.059061 -0.214058
0.063437 -0.123467 0.239101
-0.131952 0.078204 0.109769
-0.118334 -0.051115 -0.062510
0.006325 -0.130747 0.012114
0.048735 -0.124356 -0.119046
-0.094863 -0.084620 -0.066563
-0.060495 -0.016249 -0.427986
-0.100923 -0.094054 0.273253
-0.041085 -0.056669 -0.392834
0.099932 -0.093292 -0.070813
-0.090705 -0.029925 -0.346579
-0.128543 0.047703 -0.012058
-0.094070 -0.079374 -0.131013
-0.019820 -0.037620 -0.430047
-0.109151 -0.092138 0.092997
0.022916 0.039136 -0.541884
0.048070 -0.062760 -0.401647
-0.106416 -0.094966 0.331211
-0.101126 -0.073062 -0.143385
0.015940 -0.083232 -0.364791
-0.128477 -0.000640 0.085483
0.085957 -0.099890 0.165331
-0.071757 -0.059986 -0.323473
-0.109807 -0.062769 -0.157699
-0.111956 -0.058087 -0.187504
-0.020106 0.063735 -0.543585
-0.122051 -0.028106 -0.208491
-0.002837 -0.115023 -0.215379
-0.091088 -0.069490 -0.232455
0.004506 -0.145956 0.188340
-0.046251 -0.138398 0.324776
-0.009646 -0.084871 -0.348204
-0.132833 0.058529 0.231111
0.095669 -0.093578 -0.057917
-0.115048 -0.036417 -0.238978
-0.133384 -0.021429 0.084294
0.047202 -0.114891 -0.168754
0.060358 -0.105003 -0.191344
-0.067058 -0.131003 0.355730
-0.083050 -0.113772 0.096802
-0.075642 -0.059673 -0.316637
-0.024775 0.045470 -0.547386
0.009130 0.050077 -0.545205
0.106583 -0.062117 -0.275835
-0.125632 -0.064892 0.137019
0.044634 -0.126109 0.027270
-0.050004 0.102877 -0.300116
0.061283 -0.057242 -0.404863
-0.102720 -0.075198 -0.174511
-0.054078 -0.036642 -0.411769
0.014248 -0.138556 0.014074
-0.122434 -0.040232 0.020399
0.044524 -0.087637 -0.356542
-0.050021 -0.135125 0.340693
-0.055135 -0.120767 0.118027
-0.111432 -0.021187 -0.277865
0.009293 -0.145180 0.185966
0.074201 -0.110324 -0.022117
-0.133573 -0.052080 0.352713
0.001017 -0.114341 -0.128969
-0.131530 -0.033352 0.168599
0.011148 -0.085227 -0.356101
-0.051576 -0.138010 0.265858
0.014746 -0.085492 -0.362862
0.061389 -0.128563 0.193502
-0.015689 -0.148013 0.341143
0.057117 -0.003138 -0.418023
0.059398 -0.090874 -0.316082
-0.010038 -0.063258 -0.400700
0.016768 -0.031484 -0.431752
-0.057099 -0.117640 -0.010239
-0.023410 -0.049657 -0.509204
0.027444 -0.058334 -0.429585
0.018058 -0.069266 -0.413319
0.011535 -0.097732 -0.265321
-0.075378 -0.089222 -0.187165
0.011575 -0.117221 -0.241674
-0.058931 -0.088354 -0.254896
-0.028184 -0.069596 -0.372939
-0.079271 -0.108337 -0.018642
-0.035284 -0.116869 -0.168367
-0.097690 -0.102052 0.094935
0.006021 -0.130523 0.023134
-0.062613 0.108303 0.066407
-0.117215 0.000117 -0.272835
-0.113626 -0.077713 0.124057
0.007272 -0.132108 -0.031556
0.107235 -0.092759 0.229710
0.053399 -0.115041 0.082946
-0.117902 -0.049054 -0.196546
-0.124531 -0.032528 -0.138394
-0.119594 -0.023367 -0.212521
-0.043322 -0.135535 0.145062
-0.036152 -0.124801 0.113222
-0.088485 0.100512 0.354757
0.054069 -0.027472 -0.465494
0.000053 -0.051639 -0.483957
-0.060486 -0.106593 -0.104423
-0.094753 -0.113050 0.194788
-0.015504 -0.014955 -0.440886
0.005426 -0.116847 -0.261604
0.079544 -0.116767 0.338914
-0.007404 -0.064813 -0.400722
-0.077104 -0.093503 -0.100882
-0.133203 -0.031467 0.079678
-0.106728 -0.070274 -0.148520
-0.106420 0.087065 0.228926
0.030078 -0.140569 0.318438
0.001123 -0.122735 -0.051786
-0.059940 -0.136865 0.268386
-0.127707 -0.050494 0.261039
-0.015512 -0.052837 -0.504711
-0.068709 -0.128298 0.266267
-0.020564 -0.049816 -0.504693
-0.119347 -0.019403 -0.231751
-0.043661 -0.109654 -0.037229
0.006756 -0.129840 0.121802
-0.142395 -0.036532 0.373709
-0.130556 -0.016197 0.079801
-0.035733 -0.040703 -0.504663
0.013081 -0.125211 -0.093513
-0.039402 -0.034035 -0.502024
-0.009888 -0.140816 0.185116
-0.082262 -0.058730 -0.314660
-0.050109 -0.115618 0.079599
-0.090251 -0.056237 -0.291061
-0.045648 0.112906 -0.212706
-0.082949 -0.102581 0.012202
-0.095378 -0.099639 0.081422
-0.053100 -0.003437 -0.488873
-0.059156 -0.107778 -0.181487
0.049074 -0.117987 -0.156435
-0.085543 -0.113874 0.180672
-0.133564 -0.031537 0.273143
0.005558 -0.083069 -0.360836
-0.006629 -0.113240 -0.192961
0.116559 -0.080616 -0.090047
-0.068445 -0.125466 0.098661
0.009240 -0.078066 -0.387606
-0.045758 -0.057413 -0.379480
0.075835 -0.060351 -0.368773
-0.100161 -0.101361 0.327383
-0.118951 -0.046508 -0.037643
0.037297 0.032512 -0.542858
-0.101262 -0.055933 -0.248298
-0.010148 -0.075502 -0.381686
-0.120950 -0.034836 0.066029
-0.018750 0.082489 -0.406889
-0.149174 -0.015505 0.395876
0.067723 -0.012418 -0.540642
0.004167 -0.146220 0.194167
0.114057 -0.082554 -0.006543
0.012293 -0.147339 0.191713
-0.064477 -0.085113 -0.254830
0.074338 -0.116323 0.036933
-0.122329 0.005865 -0.208288
0.033725 -0.147669 0.398920
-0.006505 -0.111504 -0.177567
0.056293 -0.123951 -0.100173
0.038380 -0.138922 0.192634
-0.130873 -0.036039 -0.028720
0.079949 -0.117543 0.256423
0.099227 -0.062919 -0.304516
-0.133186 -0.029740 0.122731
0.028946 -0.139041 0.218484
-0.135265 -0.052943 0.364979
0.009505 -0.139094 0.027318
-0.040063 -0.137389 0.144991
-0.012879 -0.129655 0.007868
0.018225 -0.035347 -0.429818
-0.097197 -0.108654 0.198417
0.021784 -0.117133 -0.223633
-0.061411 -0.090601 -0.235909
0.106125 -0.070340 -0.269501
-0.117431 0.089589 0.281172
-0.035385 -0.136363 0.225328
0.025132 -0.085641 -0.366821
-0.099435 -0.096406 0.009123
-0.053289 -0.067006 -0.337193
-0.017728 -0.094921 -0.288837
-0.046326 -0.042540 -0.416499
0.039953 -0.145418 0.383980
-0.139039 -0.002975 0.317535
-0.010060 -0.144533 0.143410
-0.128358 -0.064769 0.204270
0.104262 -0.078973 -0.159091
0.042930 -0.138428 0.196061
-0.055456 -0.141362 0.379990
-0.123884 -0.051806 0.177562
0.079284 -0.036202 -0.420001
0.102747 -0.084637 0.204116
0.014248 -0.115503 -0.194132
-0.126768 0.022184 -0.145331
0.028162 -0.136301 0.139710
0.016842 0.032327 -0.543474
-0.014151 0.045069 -0.543770
-0.046894 -0.016179 -0.472004
-0.088719 0.000893 -0.372829
-0.007946 -0.048362 -0.488476
0.044207 -0.021971 -0.540823
-0.114242 -0.089429 0.347256
-0.047286 -0.099454 -0.191521
-0.136727 -0.026384 0.204777
0.033751 -0.117547 -0.139689
0.046097 -0.054749 -0.428153
-0.031012 -0.069085 -0.377687
-0.089718 -0.085241 -0.084735
0.032800 -0.026265 -0.430355
-0.069211 -0.139375 0.395128
0.096598 -0.044570 -0.344544
0.038151 -0.133152 -0.026381
