0.225080 -0.070997 0.146101
0.206977 -0.073274 0.108897
0.069026 -0.081043 0.420779
0.300572 -0.089205 0.414115
0.301232 -0.091015 0.408394
0.055901 -0.062875 0.071001
-0.074268 -0.080017 0.333602
0.051360 -0.061122 0.101616
-0.083147 0.297844 0.086196
-0.077130 0.067880 0.049591
0.293595 -0.089037 0.411138
0.141730 -0.070552 0.230684
0.220292 -0.059184 -0.005618
-0.081385 0.203496 0.018390
-0.043384 -0.071596 0.117662
-0.086587 0.043756 0.403346
-0.084213 -0.081928 0.349894
-0.008910 -0.082127 0.314875
0.316855 -0.090513 0.367737
-0.085063 -0.069407 0.068618
-0.088212 0.214186 0.351550
-0.092401 -0.075996 0.155461
-0.079971 0.189658 0.174739
-0.014121 -0.084875 0.351264
0.118682 -0.064601 -0.013234
-0.079791 0.032340 0.130417
0.308200 -0.064165 0.045654
-0.085098 0.237547 0.247707
0.192725 -0.057039 0.419255
0.000326 -0.083787 0.355206
0.138436 -0.069319 0.149818
0.175116 -0.062509 0.043200
-0.074294 -0.065394 0.064135
0.130186 -0.065302 0.009617
0.294815 -0.083651 0.389129
0.255378 -0.086694 0.426549
-0.022727 -0.073608 0.158227
0.310768 -0.087297 0.360571
0.311327 -0.089156 0.354977
-0.008148 -0.071847 0.168700
0.053738 -0.063214 0.057999
0.261711 -0.085232 0.413014
0.147632 -0.056590 0.421087
0.104072 -0.048860 0.417198
0.287878 -0.083536 0.386191
-0.044934 -0.085800 0.395101
0.116709 -0.050463 -0.013780
0.032742 -0.061153 0.076952
-0.080244 0.054080 0.208908
-0.059011 -0.065654 0.054273
0.187655 -0.066755 0.076960
-0.084904 0.095403 0.385755
-0.080632 0.001826 0.011229
-0.083913 0.170516 0.333492
-0.082980 0.256601 0.023508
0.174962 -0.070931 0.201610
-0.082319 0.113307 0.340641
0.319991 -0.091455 0.435701
0.075567 -0.065852 0.209798
0.104623 -0.063954 0.076956
-0.057799 -0.066561 0.024865
0.256016 -0.063016 0.086421
0.035456 -0.064698 -0.009688
-0.075765 -0.079154 0.311320
-0.084680 0.184571 0.309990
-0.011535 -0.060629 0.053855
-0.076104 0.135210 0.080678
0.280214 -0.078555 0.428139
0.232061 -0.084307 0.416811
0.247591 -0.086007 0.393648
-0.070964 0.077864 0.403549
0.247970 -0.063355 0.077344
0.080139 -0.068909 0.232622
0.122130 -0.066341 0.038457
-0.024022 -0.085919 0.388750
0.299224 -0.082862 0.340759
0.302021 -0.082492 0.338460
-0.080914 0.094892 -0.002042
-0.018635 -0.084043 0.331026
0.185612 -0.070754 0.421907
-0.078064 -0.076366 0.183446
-0.080773 0.066712 0.283361
0.064820 -0.071054 0.245337
-0.078020 0.109488 0.104906
-0.081808 0.209262 0.197325
0.225190 -0.066174 0.095816
0.094885 -0.067667 0.236185
-0.091066 -0.016893 0.403765
-0.002436 -0.071173 0.171524
-0.082147 0.183725 0.012572
-0.082592 0.124965 0.289963
0.086798 -0.067605 0.219232
-0.087943 0.242943 0.265488
-0.050519 -0.066227 0.004789
-0.087111 -0.089614 0.390569
0.300501 -0.065068 0.051842
-0.078117 0.010930 -0.008613
-0.076430 0.103767 0.088350
0.084023 -0.065165 0.144013
0.042159 -0.063284 0.169634
-0.079553 0.140575 0.165657
-0.078271 0.074138 0.028120
0.290433 -0.080149 0.335985
-0.034764 -0.068204 0.093085
0.302620 -0.082497 0.315813
0.011888 -0.063166 0.004177
-0.080592 0.025645 0.198206
-0.085155 0.095663 0.378202
-0.080777 0.046130 0.255741
-0.078707 0.079987 0.177289
0.246137 -0.081268 0.374185
0.150028 -0.068468 0.081757
0.242675 -0.065698 0.061373
-0.070757 0.171155 -0.002416
0.303518 -0.079475 0.311651
-0.085006 0.131493 0.358042
-0.088441 -0.052784 0.021557
0.264209 -0.064482 0.008524
-0.085243 0.014176 0.281603
0.233113 -0.080140 0.381518
-0.080927 -0.068059 -0.017330
-0.081337 -0.005115 0.071820
0.185153 -0.070547 0.209217
-0.081967 0.154977 0.268945
-0.071832 -0.075529 0.141225
0.052655 -0.063408 0.051534
-0.086419 0.016141 0.376501
0.059654 -0.053991 -0.016171
-0.042635 -0.071164 0.417009
-0.081425 0.187649 0.222588
0.167910 -0.055731 -0.011939
0.126372 -0.068733 0.082972
-0.093295 0.272668 0.382311
-0.083341 0.110382 0.344772
-0.086318 0.133682 0.371172
0.156335 -0.062012 -0.011661
-0.080073 0.038537 0.197470
0.304914 -0.083554 0.278441
0.183634 -0.085289 0.405672
-0.055716 -0.078845 0.223443
0.033223 -0.080004 0.262087
0.005572 -0.062496 0.081770
-0.081508 -0.007234 0.081854
0.054932 -0.061963 -0.018453
-0.012095 -0.063104 -0.017039
0.250841 -0.077815 0.344723
-0.092978 0.307741 0.211723
0.005624 -0.077009 0.239819
-0.084125 0.223004 0.204891
0.094823 -0.065438 0.100066
-0.010685 -0.077467 0.191859
-0.080394 0.193014 0.022693
0.294841 -0.081994 0.283304
0.300765 -0.083250 0.273424
0.023321 -0.061668 -0.005196
-0.083178 -0.016760 -0.002227
0.056548 -0.064478 0.183737
-0.082508 0.177638 0.005164
0.022242 -0.070886 0.184446
-0.018063 -0.061620 -0.014819
0.186158 -0.085976 0.389970
0.188919 -0.085580 0.387662
-0.078535 0.048469 0.155047
-0.077989 0.036564 0.094560
0.215082 -0.077863 0.375986
0.024449 -0.059977 0.066236
0.221336 -0.078982 0.365733
-0.077003 0.090624 0.089412
0.086692 -0.066323 0.010079
0.212853 -0.069970 0.101092
0.003977 -0.085408 0.347269
0.257276 -0.074031 0.335976
-0.078844 0.117456 0.214740
-0.080513 0.109374 0.247645
0.061191 -0.065931 0.167524
-0.010734 -0.082977 0.280005
-0.082980 0.123772 0.350978
0.016125 -0.063377 0.090627
0.089309 -0.086042 0.421057
0.061503 -0.062170 0.088694
-0.079597 0.064382 0.188890
0.189752 -0.065214 0.006983
0.043974 -0.060069 0.031106
0.213958 -0.077106 0.368424
-0.089811 -0.016122 0.335254
0.043212 -0.068874 0.197792
-0.079447 0.149397 0.199677
0.322012 -0.074864 0.125739
0.272000 -0.079277 0.295288
0.225093 -0.067861 0.075621
0.212007 -0.080030 0.424717
0.303377 -0.081299 0.254551
0.153851 -0.068552 0.101572
-0.072242 -0.066848 0.019976
-0.091916 -0.041478 0.210815
-0.049629 -0.068107 0.088020
0.322237 -0.069407 0.113909
0.013059 -0.066544 0.155751
0.217892 -0.069341 0.096996
-0.028096 -0.065526 0.055815
0.227282 -0.076383 0.343865
-0.079311 0.087426 -0.001712
-0.057504 -0.071217 0.119186
0.253202 -0.076899 0.312399
0.259232 -0.078119 0.302414
0.108525 -0.065658 0.031863
-0.072140 -0.082756 0.342838
0.071101 -0.066196 0.005463
0.282055 -0.079180 0.273649
0.150244 -0.070913 0.247703
-0.089005 0.301786 0.242831
-0.081795 0.210500 0.002979
0.041917 -0.059889 0.084188
-0.080447 0.136703 -0.007217
0.314807 -0.067059 0.066931
-0.080535 0.011965 0.014025
0.183537 -0.064760 0.077348
-0.081187 -0.067112 0.048490
-0.017080 -0.072899 0.161045
-0.096219 -0.066755 0.206433
0.286270 -0.064707 0.120225
0.197953 -0.077590 0.364803
0.203449 -0.076815 0.360227
-0.083178 0.078252 0.345512
-0.077135 0.190622 0.112368
-0.084081 -0.024147 -0.000320
-0.081874 0.280684 0.083356
0.146817 -0.063205 -0.003923
0.211769 -0.069658 0.145956
-0.088393 -0.049776 0.032815
0.281139 -0.080559 0.261048
0.128781 -0.065253 0.203368
0.014698 -0.080563 0.327004
-0.103711 -0.073679 0.390212
-0.067036 -0.081827 0.279000
-0.088252 0.288013 0.227306
-0.046053 -0.083717 0.319204
-0.060808 -0.083941 0.418299
0.134621 -0.081854 0.419379
0.135529 -0.083734 0.413578
-0.084671 0.280940 0.159099
-0.088133 0.091276 0.404800
-0.078549 0.166464 0.126995
0.163920 -0.081589 0.384738
0.324805 -0.082611 0.286845
0.006585 -0.072882 0.189797
0.227432 -0.069887 0.128382
-0.091639 -0.083492 0.364099
-0.081940 0.262965 0.126576
-0.078500 0.061815 -0.001681
0.241323 -0.072776 0.315434
-0.075470 0.146772 0.096278
-0.094061 0.287564 0.350396
-0.013940 -0.075586 0.199223
0.055135 -0.070635 0.214198
-0.006809 -0.064060 0.106690
0.043221 -0.084399 0.421431
-0.078399 0.159192 0.039051
-0.090780 -0.069169 0.109227
-0.092467 0.243630 0.401210
-0.033901 -0.072600 0.142212
-0.082513 0.190398 0.234899
0.130006 -0.085685 0.404721
0.149213 -0.082862 0.388605
-0.078108 0.053323 0.022922
-0.081011 0.219987 0.176712
-0.080663 0.236195 0.157337
-0.074660 0.044408 -0.005940
-0.034165 -0.077859 0.185688
0.193407 -0.069451 -0.012701
0.163832 -0.068283 0.005595
-0.082627 0.174031 0.261722
0.187224 -0.070358 0.111178
-0.078773 0.175533 0.153531
-0.080187 0.011604 0.051313
-0.093682 0.263930 0.385464
0.006157 -0.067143 0.123956
-0.083988 0.007310 0.229530
0.188342 -0.068129 0.033621
-0.069775 -0.069001 0.080224
0.087926 -0.065927 0.060721
0.209770 -0.073855 0.174492
-0.055954 -0.078356 0.193347
-0.070700 -0.081845 0.266620
0.040825 -0.062844 0.036475
0.192029 -0.069200 0.091777
0.070471 -0.064121 0.136958
0.155424 -0.076630 0.421228
-0.081341 0.071808 0.404791
0.074620 -0.063170 0.110822
0.066066 -0.066539 0.202090
-0.080165 0.021862 0.120784
0.142770 -0.082950 0.385579
0.148240 -0.082153 0.380998
0.159145 -0.064412 0.048649
0.156437 -0.080964 0.374141
0.131578 -0.068279 0.167991
-0.079236 0.154061 0.164357
0.247124 -0.066024 0.081056
0.096660 -0.067213 0.056427
0.183735 -0.077061 0.351379
0.188466 -0.074353 0.352453
0.191914 -0.075908 0.344578
-0.074369 -0.078255 0.153549
-0.079888 0.185438 -0.005790
0.222534 -0.073719 0.314210
0.008183 -0.067213 0.159786
0.237835 -0.077815 0.286611
-0.100866 0.297337 0.423968
0.101619 -0.067473 0.194383
-0.092810 0.305895 0.215453
-0.078491 0.216459 0.142111
0.279668 -0.078528 0.237374
-0.002097 -0.061571 0.056105
0.288116 -0.079519 0.225509
-0.077100 0.099279 0.108932
-0.078804 0.101314 0.196682
0.091106 -0.064637 0.153518
0.113555 -0.068786 0.128646
-0.078496 0.234063 0.099071
0.128248 -0.067178 0.191158
0.178758 -0.070904 0.206473
0.161229 -0.070609 0.173272
0.020058 -0.055449 -0.017788
0.000850 -0.063130 0.085659
-0.085305 -0.070935 0.100255
0.202357 -0.075705 0.322556
-0.014786 -0.067557 0.116125
-0.089040 -0.042835 -0.012044
-0.079835 0.225065 0.155095
0.255426 -0.074740 0.263862
-0.089036 0.251320 0.308250
-0.098232 -0.074987 0.328766
-0.014618 -0.062831 -0.000844
0.284011 -0.079352 0.220620
0.297735 -0.079704 0.204491
0.078139 -0.065064 0.014285
-0.087199 0.284890 0.208041
-0.088661 -0.060734 0.008837
-0.077738 0.039793 0.112834
0.034976 -0.063549 0.137636
0.071250 -0.067323 0.169894
0.265869 -0.066782 0.010136
0.129552 -0.066896 0.123194
0.123646 -0.082052 0.389820
0.061120 -0.064615 0.062161
-0.072708 0.149066 -0.004707
0.056601 -0.063491 0.145440
0.062939 -0.062492 0.132628
0.158322 -0.066980 0.052229
-0.050378 -0.077669 0.196246
-0.030069 -0.067570 0.089213
0.032351 -0.078687 0.231441
0.197680 -0.071071 0.149572
0.192416 -0.074247 0.327445
-0.079804 0.043395 0.169299
-0.045996 -0.082334 0.339790
-0.070330 -0.088055 0.392401
-0.077483 0.109845 0.111544
0.027594 -0.059061 -0.018537
0.235302 -0.076674 0.272112
-0.077166 -0.078651 0.178130
-0.083455 0.285133 -0.009864
0.172385 -0.086399 0.423827
-0.089895 0.248298 0.319808
0.271916 -0.080215 0.222267
0.122364 -0.066931 0.172523
-0.090300 -0.052886 0.082259
-0.078223 0.023016 0.073617
-0.076580 0.073552 0.057365
-0.086569 0.271012 0.224007
-0.058205 -0.076119 0.184785
0.274493 -0.062122 0.043407
0.092740 -0.085831 0.407421
-0.087631 0.240124 0.313113
0.111089 -0.069111 0.130672
-0.060407 -0.081065 0.377545
-0.082209 0.240842 0.138045
0.004550 -0.061593 0.014620
0.085080 -0.075168 0.303485
0.102636 -0.066469 0.058995
0.035363 -0.063879 0.160024
-0.093709 0.254381 0.419017
-0.077439 0.135999 0.050961
-0.083684 0.065122 0.339103
0.213100 -0.063020 0.033374
0.177058 -0.073560 0.336848
0.172605 -0.064980 0.025530
-0.077003 0.044104 -0.004020
0.191963 -0.075612 0.314522
0.137017 -0.069508 0.247421
-0.084164 0.220639 0.229962
-0.030708 -0.072177 0.147004
-0.099047 -0.071327 0.295314
0.076760 -0.063130 0.124185
-0.091009 -0.036483 0.226566
-0.078289 -0.076388 0.153954
0.131569 -0.067918 0.212075
0.259042 -0.077022 0.234480
-0.078826 0.185315 0.067834
-0.086292 0.034111 0.384874
0.052501 -0.065284 0.194797
-0.080183 0.175964 0.176210
-0.047370 -0.065482 0.009238
0.092220 -0.063055 0.076727
-0.080791 0.096037 0.248742
0.201379 -0.064055 0.020134
0.233946 -0.069464 0.130972
0.099659 -0.068834 0.219545
-0.075818 0.095398 0.075569
-0.082288 -0.077009 0.194435
-0.078602 0.145477 0.144397
0.290569 -0.065310 0.036475
-0.088031 0.214058 0.358998
0.087247 -0.063866 0.095825
0.195610 -0.057153 -0.013850
-0.024423 -0.076489 0.177588
0.034350 -0.060919 0.105272
-0.078729 0.204509 0.067359
-0.091885 0.279416 0.328898
-0.070277 -0.067658 -0.002628
-0.078121 0.210927 0.140974
0.181388 -0.072190 0.324934
-0.090071 -0.067953 0.415503
-0.088102 0.292955 -0.008591
-0.099540 -0.074260 0.306524
0.309363 -0.063276 0.080920
0.221534 -0.075018 0.271896
-0.083411 0.145243 0.006925
0.238095 -0.074903 0.253327
0.004034 -0.076674 0.225645
-0.019076 -0.076921 0.226469
0.020397 -0.060941 0.040399
0.166250 -0.088253 0.422968
-0.089401 -0.024477 0.413358
0.099994 -0.067367 0.106316
0.069013 -0.081624 0.425655
-0.036861 -0.078660 0.210683
-0.033685 -0.064346 0.043302
-0.079333 0.048971 -0.000800
-0.087657 0.064004 0.405399
0.192619 -0.065029 0.019694
0.047665 -0.078427 0.302551
0.203762 -0.070274 0.189097
-0.094035 -0.063932 0.186807
0.129006 -0.078889 0.360267
0.083504 -0.064465 0.106439
-0.089071 0.245691 0.285246
0.236738 -0.082431 0.426078
0.041877 -0.065491 0.157597
0.212298 -0.067187 0.090755
-0.078320 0.137941 0.160526
0.211721 -0.073551 0.276697
0.219746 -0.072472 0.270081
0.024713 -0.070547 0.182398
0.241649 -0.071666 0.247139
-0.079562 0.159457 0.165617
-0.071422 -0.066412 0.026331
-0.025378 -0.066936 0.085342
-0.064670 -0.082439 0.419079
0.246899 -0.061395 0.008974
-0.091238 0.250760 0.340046
-0.077514 0.064219 0.031912
-0.082764 0.147913 0.403778
0.326505 -0.075797 0.143652
0.061741 -0.079854 0.428399
0.231678 -0.065685 0.098348
0.095365 -0.067438 0.020460
0.105200 -0.067328 0.199249
-0.037354 -0.066768 0.063439
-0.075651 -0.066936 -0.014744
-0.006549 -0.071525 0.159839
-0.081310 0.170824 0.197871
-0.006902 -0.083272 0.337148
0.062274 -0.079052 0.330660
-0.030637 -0.062959 0.002543
-0.083182 0.105251 0.335888
-0.050061 -0.067257 0.035374
0.032500 -0.061840 0.025997
0.108640 -0.065742 0.061558
-0.078359 0.135681 0.178060
-0.084363 0.297425 0.139424
0.201912 -0.072098 0.281498
-0.089304 -0.075507 0.189912
0.224877 -0.075317 0.247773
-0.010073 -0.064544 0.102013
-0.078236 0.147824 -0.006984
0.147152 -0.068473 0.150439
0.250066 -0.078348 0.212344
0.265913 -0.076322 0.199408
0.268913 -0.078057 0.192044
0.059649 -0.065429 0.138283
-0.079460 0.186438 0.155949
-0.089749 0.230531 0.370362
-0.077575 0.135699 0.095913
0.011500 -0.066878 0.164600
-0.086710 0.254319 0.251235
0.003889 -0.077568 0.249050
-0.079905 0.234891 0.121287
-0.084891 0.270580 0.193731
-0.080597 0.098499 0.282797
0.048347 -0.064601 0.011295
-0.089282 0.256869 0.324115
0.025453 -0.059774 0.072750
-0.100773 -0.069644 0.368657
-0.069960 -0.068490 0.027811
0.081200 -0.062549 -0.005561
-0.062865 -0.077916 0.249354
0.130574 -0.079268 0.337416
0.073259 -0.063465 0.119498
-0.030633 -0.079973 0.274851
-0.081927 0.263930 0.043830
-0.084755 0.248342 0.212476
-0.063411 -0.076700 0.159262
0.149227 -0.065482 0.041672
-0.068771 -0.081325 0.257309
0.261870 -0.076238 0.194581
-0.097686 -0.047358 0.384795
-0.057496 -0.083197 0.333620
-0.085191 0.270343 0.186794
-0.076567 0.116685 0.036096
-0.083711 -0.020469 0.069270
-0.080134 0.102692 -0.004359
-0.077857 0.107537 0.121938
0.052144 -0.064637 0.172012
0.107354 -0.079823 0.353515
0.234800 -0.068217 0.106677
-0.081843 0.028006 0.240752
0.294264 -0.063919 0.069468
-0.084988 0.042321 0.300129
0.134934 -0.077942 0.325529
0.137603 -0.077559 0.323305
-0.044692 -0.065795 -0.007015
-0.080932 0.192565 0.186780
-0.092661 -0.061743 0.131386
0.211245 -0.073741 0.247557
0.109886 -0.069587 0.250728
0.195350 -0.068085 0.065998
-0.075844 0.082723 0.083140
0.018538 -0.065610 0.136169
0.241799 -0.067169 0.026604
0.106336 -0.068407 0.014312
0.075580 -0.066112 0.143331
-0.009972 -0.061866 0.419132
0.125945 -0.068860 0.261440
-0.079857 -0.076661 0.192409
-0.081337 -0.001226 0.111738
0.036618 -0.064773 -0.017792
-0.077650 0.158060 0.062144
0.321744 -0.074714 0.123286
-0.083195 0.169569 0.007731
-0.092691 -0.073569 0.197294
-0.091885 -0.061109 -0.025663
0.162378 -0.063751 0.023464
0.067943 -0.082836 0.383289
-0.078848 0.214208 0.093072
0.147830 -0.063108 -0.012128
-0.084578 0.048782 0.351572
0.094955 -0.065218 0.084880
0.017397 -0.060646 -0.017299
0.123276 -0.078920 0.327026
-0.065815 -0.067068 -0.006292
0.136595 -0.077022 0.315923
0.131983 -0.067477 0.025825
-0.016596 -0.063694 -0.013344
0.093233 -0.064839 0.167176
0.151856 -0.072763 0.308162
-0.084653 0.009684 0.242008
-0.089749 -0.049802 0.100506
0.315062 -0.065940 0.043187
0.078760 -0.062298 0.069948
0.013103 -0.071798 0.176765
0.322017 -0.068015 0.122546
0.206119 -0.058263 0.418885
0.197763 -0.068561 0.265245
-0.080024 0.250465 0.095556
-0.089326 -0.058180 0.013686
-0.091590 0.256182 0.356135
0.079760 -0.053366 -0.015445
-0.082411 -0.009978 0.026349
-0.082689 0.220313 0.199699
-0.088820 0.024584 0.412635
-0.087388 0.211988 0.316509
-0.078663 0.177634 0.032282
-0.077875 0.084912 0.156082
-0.086406 -0.073023 0.125704
0.028338 -0.086025 0.413397
-0.097431 -0.069772 0.240470
0.170799 -0.071653 0.101374
0.023247 -0.062421 0.084761
-0.079187 0.138487 0.190132
-0.039684 -0.064157 0.009973
0.075210 -0.081039 0.368913
-0.089895 0.221581 0.388446
-0.077390 0.139703 0.068812
0.115387 -0.075163 0.335249
0.000449 -0.059395 0.029591
-0.079830 0.002791 0.076317
0.216482 -0.069213 0.090367
-0.068044 -0.086646 0.411473
-0.069537 -0.082360 0.340641
-0.080372 0.118676 -0.000813
-0.086340 0.223479 0.294821
-0.079500 0.209561 0.061902
0.185968 -0.069526 0.266809
-0.085446 0.231588 0.225306
-0.076117 0.095509 -0.005962
0.315309 -0.065614 0.087143
0.030734 -0.077357 0.253199
-0.078157 0.029235 0.103325
0.118100 -0.050357 0.416731
0.239350 -0.077405 0.188683
-0.078919 0.030239 0.021042
0.167201 -0.072935 0.127536
0.319590 -0.067072 0.145854
0.070237 -0.067235 0.163045
0.289067 -0.071164 0.148242
-0.017274 -0.059250 -0.018140
-0.090000 0.279768 0.282713
0.296947 -0.070199 0.141864
-0.067441 -0.081638 0.330973
-0.003735 -0.081360 0.310527
0.159528 -0.069125 0.232001
0.032461 -0.088865 0.391754
0.043199 -0.087236 0.382685
0.264006 -0.066989 0.130311
0.246864 -0.067729 0.060981
-0.083477 0.221881 0.406535
-0.093810 0.296399 0.339795
0.078830 -0.077700 0.362561
-0.005030 -0.077462 0.217770
0.098439 -0.076938 0.341204
0.249982 -0.061373 0.021738
0.063631 -0.061994 0.101903
0.191064 -0.070169 0.115816
-0.061548 -0.076555 0.128179
0.182163 -0.069420 0.261806
-0.010861 -0.084923 0.356567
-0.064415 -0.066623 0.051591
0.033099 -0.059135 0.037237
-0.087208 -0.077621 0.168758
0.248044 -0.073608 0.178416
-0.089613 -0.079863 0.417568
-0.070643 -0.061923 0.415992
-0.040860 -0.080299 0.252367
-0.093731 -0.066575 0.145216
0.297810 -0.067416 0.138006
-0.049299 -0.064513 -0.012881
-0.076831 0.130731 0.101286
-0.040631 -0.077467 0.241448
0.316789 -0.071631 0.108104
0.107926 -0.069935 0.207931
0.142677 -0.069411 0.087764
-0.086648 -0.028758 0.140362
0.019978 -0.087971 0.398999
0.035826 -0.067174 -0.014432
0.039754 -0.054687 -0.016951
-0.079852 0.007407 0.018958
0.045167 -0.076066 0.256912
-0.078025 0.037511 0.123136
-0.078395 0.214622 0.099705
0.170491 -0.065443 0.042319
-0.047489 -0.066196 0.054669
-0.077478 0.150819 0.403307
-0.095034 0.284388 0.362209
0.114277 -0.076123 0.314870
-0.074770 0.090813 0.402849
0.303712 -0.065390 0.064923
-0.082883 0.212129 0.209490
-0.066045 -0.067372 0.038725
0.193887 -0.071961 0.160565
0.163175 -0.073542 0.264461
-0.081856 0.030649 0.222809
0.181000 -0.068979 0.254635
-0.040323 -0.075908 0.142970
0.188906 -0.067909 0.248117
-0.085494 0.290255 0.022535
-0.089287 0.086541 0.404729
0.036059 -0.061531 0.015844
0.084746 -0.061968 -0.001192
0.129437 -0.067394 0.138697
-0.093075 -0.079387 0.256353
0.220636 -0.076599 0.192762
0.148385 -0.065399 -0.002372
0.060164 -0.062395 0.097269
0.122258 -0.068706 0.018910
-0.089718 0.301773 -0.003095
-0.025955 -0.064324 0.008463
0.056090 -0.077815 0.340733
0.201445 -0.070204 0.138627
-0.078619 0.162205 0.161750
0.180894 -0.070882 0.108589
0.283456 -0.070834 0.136751
0.031809 -0.059188 0.045574
0.298669 -0.064637 0.134152
0.257650 -0.065081 0.006177
0.011513 -0.069517 0.175126
-0.046934 -0.066090 -0.005174
-0.080575 0.000487 -0.009485
-0.080579 0.149613 0.229847
0.018529 -0.084355 0.351185
0.002519 -0.083633 0.420321
-0.081605 0.256557 0.059743
0.012253 -0.076692 0.249870
0.013944 -0.088205 0.395872
-0.085970 -0.079206 0.281084
0.080513 -0.076392 0.278300
0.027351 -0.086161 0.384535
0.277140 -0.064077 0.036536
-0.083068 0.118760 0.334699
0.232994 -0.062919 0.012603
-0.080517 0.220616 0.116292
-0.065375 -0.080937 0.321353
0.136106 -0.067477 0.075009
0.008157 -0.077912 0.202108
-0.087719 0.149569 0.383011
-0.078091 0.168825 0.116486
0.113313 -0.075639 0.307519
-0.035632 -0.066213 0.076476
-0.082403 0.261710 0.054185
-0.076637 0.062312 0.092931
-0.090339 0.214604 0.406597
0.140515 -0.085412 0.421744
0.028801 -0.077506 0.299173
0.144875 -0.081928 0.421048
0.152891 -0.070085 0.274640
0.237236 -0.059801 -0.001320
0.163409 -0.067345 0.160552
-0.077527 0.124080 0.139279
-0.081619 0.217397 0.187591
-0.080932 -0.004010 0.040567
0.288274 -0.067226 0.077361
0.318489 -0.062963 0.037391
0.190888 -0.069217 0.233503
0.111044 -0.065575 0.074595
0.212351 -0.068530 0.210996
0.144390 -0.069548 0.257401
-0.067864 -0.078643 0.253538
-0.091736 0.296857 0.293363
0.188761 -0.065412 0.015298
0.007571 -0.060602 0.033696
-0.100373 -0.087293 0.411481
0.255655 -0.071622 0.156170
-0.069661 -0.061699 -0.024914
-0.041168 -0.064945 0.063826
-0.085834 0.114721 0.370983
0.281954 -0.070534 0.129976
0.055002 -0.064941 0.192726
0.125923 -0.068235 0.023336
0.245895 -0.087139 0.426285
-0.012372 -0.080598 0.278283
0.005250 -0.088865 0.395013
0.023986 -0.086007 0.379179
0.174301 -0.066020 0.240761
-0.081042 0.218216 0.126889
0.063935 -0.050912 -0.015233
-0.075496 0.067065 0.079141
-0.081050 0.105493 0.000367
0.071885 -0.078867 0.338888
0.085133 -0.076934 0.327793
0.090427 -0.076167 0.323366
0.159740 -0.073142 0.420568
0.235020 -0.070706 0.042703
-0.087873 -0.060245 0.015157
-0.078161 0.076583 0.402606
-0.021397 -0.081224 0.270187
0.228581 -0.069358 0.119578
-0.078179 -0.085514 0.379783
0.008558 -0.066812 0.121974
0.151808 -0.069649 0.267426
0.005250 -0.067244 0.117265
0.184449 -0.069526 0.230728
-0.078527 0.026751 0.047160
0.050131 -0.074256 0.229217
-0.094792 -0.034986 0.346005
0.225736 -0.074925 0.172554
-0.078003 -0.076634 0.213401
-0.076818 0.108158 0.135350
0.191491 -0.068372 0.061483
0.145848 -0.066222 0.067050
0.322400 -0.069600 0.079722
0.070273 -0.061505 0.126585
-0.009888 -0.088412 0.404549
0.320079 -0.068658 0.057894
0.087040 -0.064112 0.111095
-0.022009 -0.086073 0.357919
0.038270 -0.081078 0.363861
-0.041825 -0.071455 0.109038
0.024819 -0.075960 0.262902
0.031919 -0.072472 0.419564
-0.014812 -0.078224 0.202918
0.007642 -0.066918 0.115292
0.078967 -0.077216 0.324811
0.186294 -0.066720 0.070407
0.111366 -0.074718 0.292892
-0.090819 0.285379 0.276635
-0.083539 0.261670 0.173677
-0.098364 -0.078365 0.347679
0.136925 -0.068984 0.276538
0.139554 -0.068618 0.274358
