-0.021687 0.121310 -0.242269
-0.067899 0.074588 -0.193793
-0.073920 0.108145 0.250279
-0.030069 -0.101581 -0.083039
-0.067771 -0.084104 0.398563
-0.063116 0.122235 0.167079
-0.030554 0.128480 -0.133602
0.024916 -0.120128 0.369401
-0.036936 0.110946 -0.185412
0.072101 -0.095309 0.138098
-0.068511 0.114500 0.196078
0.062442 -0.094459 -0.112527
-0.064891 -0.002988 -0.234085
-0.069163 0.121257 0.070631
0.092149 -0.083844 0.179306
-0.060077 0.086497 -0.219035
-0.077633 0.102018 0.382447
-0.069440 0.003491 -0.196678
-0.026149 0.105850 -0.361968
-0.070489 0.135369 0.029784
-0.124465 0.049350 -0.107229
-0.072167 0.072852 -0.276570
0.000727 -0.118908 0.359183
-0.019265 -0.107553 0.332475
-0.031778 -0.071631 -0.139932
-0.019380 0.010450 -0.391041
0.119144 -0.075458 0.339240
-0.039451 0.116513 -0.246043
0.021058 -0.123678 0.398198
-0.027519 -0.111033 0.405381
-0.037636 0.016784 -0.383598
-0.011976 -0.087839 0.006604
-0.088005 0.049909 -0.137950
-0.046079 0.104132 -0.149450
-0.046700 -0.084575 0.063289
-0.099333 -0.038567 0.239361
-0.048066 -0.103365 0.325058
-0.097660 0.082084 0.167313
-0.060737 0.112391 -0.129361
-0.096955 -0.049974 -0.105639
-0.063895 0.117372 0.390085
0.011663 -0.054960 -0.277931
-0.064221 0.093249 -0.336277
-0.046643 -0.028520 -0.199171
-0.075954 0.073006 -0.306221
-0.056099 0.086488 -0.189257
0.084332 -0.076062 0.004556
-0.106032 0.059705 0.386455
0.036121 -0.037492 -0.354335
0.086618 -0.089112 0.158693
-0.066185 0.078406 -0.265691
0.003493 -0.101119 0.098604
-0.086807 -0.092570 0.424492
-0.078359 -0.073419 0.271513
-0.055549 -0.083646 0.080515
-0.070647 0.110951 0.025292
-0.119241 0.006610 0.011621
0.060953 -0.030868 -0.352225
0.023986 -0.102629 0.191634
-0.079531 -0.051921 -0.127269
-0.086375 0.093425 0.279093
-0.078813 -0.016386 -0.151357
0.098060 -0.078352 0.206098
-0.018107 -0.020658 -0.358497
-0.084195 0.103560 0.078837
-0.002533 0.105049 -0.351582
0.109155 -0.109716 0.424888
-0.078800 -0.067856 0.125369
-0.079306 0.026791 -0.164601
0.068868 -0.092411 0.058211
-0.027241 0.108955 -0.347103
-0.024211 0.068351 -0.396516
-0.000714 -0.107205 -0.112329
-0.107323 0.082097 0.437018
0.002348 0.102384 -0.354207
-0.048013 0.105582 -0.271285
-0.128491 0.009834 0.419216
-0.089150 0.081961 0.412301
0.000436 -0.113266 -0.061255
0.130340 -0.045226 0.194145
0.059165 -0.095732 0.035127
-0.020564 -0.048719 -0.200871
-0.075999 0.070637 -0.332705
-0.058588 0.090769 -0.278539
-0.064098 0.148388 -0.048258
0.107631 -0.081889 -0.057053
0.126306 -0.071129 0.380135
0.107226 -0.077379 0.295337
-0.041221 0.122728 0.424122
-0.033985 0.084784 -0.387042
-0.086415 0.019867 -0.141689
-0.114000 0.067761 -0.114619
-0.027501 0.119632 -0.141852
0.108763 -0.072666 0.233194
-0.078809 -0.067011 0.188265
-0.084614 0.043527 -0.150714
0.118149 -0.054114 -0.116755
-0.044317 0.080908 -0.366293
0.028501 -0.052361 -0.272474
0.032315 -0.092979 -0.130022
-0.094268 0.117949 -0.093117
-0.116612 0.016194 0.125361
0.083512 -0.010066 -0.272434
-0.067273 0.115439 0.256749
-0.005382 -0.097709 0.106866
-0.103592 0.097455 -0.003887
-0.068203 0.128559 0.029428
-0.020300 0.121622 -0.146265
-0.081570 0.054983 -0.139504
-0.117167 0.012925 0.260352
-0.056280 0.125882 0.146246
-0.035297 -0.033603 -0.298791
0.062538 -0.110385 0.356866
-0.019296 0.118103 -0.161509
-0.105495 0.065647 0.176421
-0.094850 0.087550 0.184208
-0.077967 -0.078629 0.334377
-0.057020 0.127243 0.135553
-0.050453 0.053746 -0.394803
-0.007831 -0.050639 -0.197524
-0.101773 -0.042473 -0.101208
-0.043723 0.104674 -0.266290
-0.007950 -0.052661 -0.208183
0.069216 -0.101083 0.290492
0.112612 -0.072935 -0.046721
0.029122 -0.109668 -0.100221
-0.037345 0.123644 0.412856
-0.083010 0.097121 0.282370
-0.015517 -0.098612 0.036585
0.001925 -0.105875 0.020491
-0.055337 -0.022319 -0.181047
0.062825 -0.096586 0.132069
-0.024678 0.047778 -0.397463
-0.116524 -0.023248 -0.059027
-0.074219 0.012683 -0.162121
0.110225 -0.076462 -0.094319
-0.089811 0.104331 -0.111787
-0.104491 -0.021574 0.119071
0.058896 -0.099203 0.147132
-0.088692 -0.052533 0.070094
0.040301 -0.076088 -0.140390
0.035112 -0.108826 0.250292
0.120153 -0.051278 0.008044
0.044485 -0.091772 -0.008816
0.061385 -0.038928 -0.337404
-0.104830 0.039295 -0.135135
-0.047114 -0.025389 -0.259882
-0.092396 0.083348 0.264052
-0.053391 0.106550 -0.336404
0.060803 -0.013153 -0.357942
-0.041428 0.128366 0.231794
-0.051100 0.068835 -0.397833
-0.113141 0.088695 0.036281
-0.027810 -0.107694 0.395493
-0.082711 0.103780 0.180742
-0.011126 -0.105303 0.267227
-0.045947 -0.089257 0.125647
-0.094620 0.106850 -0.109299
-0.005096 -0.052419 -0.275980
-0.105720 0.066254 0.171004
-0.026391 -0.045143 -0.285820
-0.026704 -0.041104 -0.302816
-0.034998 0.126084 0.265378
-0.011980 -0.050023 -0.192225
-0.059504 0.104679 -0.325574
-0.020489 -0.046733 -0.190182
0.089753 -0.086725 0.028996
-0.075646 0.061718 -0.163447
-0.038574 0.117231 -0.137676
0.129398 -0.049763 0.013827
-0.078166 -0.078563 -0.067483
-0.078663 -0.069248 0.209745
0.068379 0.015762 -0.387258
0.089806 -0.092085 -0.067452
0.069788 -0.099260 -0.030217
0.106178 -0.060862 -0.002584
0.011927 -0.050904 -0.336554
-0.078188 0.058630 -0.226051
-0.110446 0.052953 0.129016
-0.084063 0.033045 -0.146111
0.060517 -0.032995 -0.321139
0.095325 -0.094327 0.343613
-0.108442 0.073702 0.064227
-0.075122 0.115553 0.101511
0.046440 -0.048591 -0.213028
-0.064256 0.119548 0.254433
0.028228 -0.096388 -0.126903
-0.078720 -0.067557 0.246236
0.010945 -0.050045 -0.308639
-0.059905 0.125789 0.170233
-0.117739 0.011032 0.351546
-0.070035 -0.069662 -0.107779
-0.044507 0.099376 -0.159866
0.033879 -0.116195 0.353497
-0.086353 0.032525 -0.295188
-0.104654 -0.039584 0.367402
0.065837 -0.101506 0.207662
-0.020626 -0.102858 0.263669
-0.094171 0.085079 0.175928
-0.090819 0.088250 0.424127
-0.010641 -0.004772 -0.393389
0.017886 -0.100070 0.137305
0.009196 -0.051159 -0.188794
-0.077536 0.111391 0.127699
-0.127870 0.027240 0.040152
0.041719 -0.100405 0.038144
-0.066467 0.127577 0.100286
0.055557 0.023954 -0.397155
0.121712 -0.065865 0.297636
-0.055619 0.127529 0.189635
-0.094070 -0.047842 0.255956
-0.035469 -0.035880 -0.328322
0.070524 -0.030881 -0.248052
0.082367 -0.021209 -0.334506
-0.005959 -0.014466 -0.370032
-0.055571 0.045606 -0.362439
-0.116132 -0.027895 -0.066902
-0.010262 -0.107338 0.307700
-0.064499 0.000915 -0.355330
0.022220 -0.108161 -0.038749
-0.069172 -0.001358 -0.159712
-0.047564 0.100944 -0.341769
-0.096501 0.072619 0.362072
0.072642 -0.109416 0.369683
-0.035205 -0.094582 0.247126
-0.019371 -0.107681 0.326220
0.030584 -0.101374 0.108126
-0.038054 -0.033841 -0.211852
-0.073902 -0.077436 -0.036317
-0.110049 0.052275 0.194220
-0.066252 -0.001032 -0.329626
-0.102060 0.069536 0.209802
-0.066119 0.116712 -0.119209
0.068595 -0.040527 -0.180809
-0.134045 0.037344 -0.040114
-0.128799 -0.022244 0.425642
0.126804 -0.046138 0.130945
-0.072629 0.107806 0.297803
0.054355 -0.106443 0.268985
-0.080315 0.128317 0.041606
-0.077752 0.040810 -0.342113
0.040243 -0.037096 -0.354313
-0.099250 0.075257 0.226936
-0.078694 0.069584 -0.309269
0.076412 -0.025235 -0.202294
-0.116348 -0.016095 0.394938
-0.087296 0.100045 0.075718
0.009320 -0.054225 -0.185588
0.005069 -0.050564 -0.183478
0.066696 -0.036382 -0.236353
-0.030774 -0.092931 -0.117636
-0.015288 -0.096745 0.053793
-0.048308 0.135360 0.088835
-0.084926 0.032120 -0.327882
-0.097391 -0.079889 0.416538
-0.043102 -0.097480 -0.095072
-0.106222 0.079816 0.009912
-0.044441 0.122724 -0.132418
-0.098007 0.082286 0.137583
-0.104614 -0.020711 0.130915
0.044656 -0.043671 -0.292567
0.044388 -0.099163 0.120044
0.049528 -0.046279 -0.270201
-0.088736 -0.059135 0.332061
0.041706 -0.102224 0.173964
-0.069185 -0.085562 -0.071993
-0.073739 0.003187 -0.152176
-0.028457 -0.092424 0.073402
-0.092502 0.089021 0.029855
-0.062891 -0.095001 0.302018
0.034077 -0.116102 0.359800
0.128697 -0.087940 0.423409
-0.066269 0.126128 0.086976
-0.014090 -0.089297 -0.126027
0.075712 -0.025186 -0.221546
-0.123439 0.055679 -0.011661
0.064071 -0.110046 0.394938
-0.024753 -0.101995 0.300595
0.033963 -0.052846 -0.209918
-0.129222 0.022029 -0.005504
0.022013 -0.140270 0.415582
-0.067639 -0.087465 0.389323
0.107706 -0.069393 0.121260
-0.056275 0.086889 -0.218811
0.114158 -0.079312 0.336351
0.036222 -0.139063 0.409455
-0.113022 -0.011982 0.314804
0.067661 -0.106510 0.366129
0.066732 -0.094032 0.117067
-0.123196 0.054737 -0.006552
-0.060006 0.123450 0.425465
-0.043243 0.107515 -0.146441
-0.044110 -0.097648 0.274878
-0.052025 -0.089108 -0.104740
0.043133 -0.112456 -0.057564
-0.094070 -0.044429 0.182253
-0.064732 0.113787 0.326960
-0.053443 0.117531 0.425769
-0.055329 0.157629 -0.052045
-0.060169 -0.085628 0.031071
-0.057112 -0.015871 -0.313198
0.059975 0.003200 -0.387817
-0.038464 0.126560 0.295869
-0.074166 0.103613 0.359848
-0.000529 -0.099449 0.121952
-0.099307 -0.032925 0.150576
0.021000 0.083357 -0.390328
-0.114665 0.008917 0.268240
-0.104821 -0.028097 0.253380
-0.118470 0.052473 0.009150
-0.075836 0.020743 -0.270426
0.094109 -0.094869 0.318539
-0.116863 0.101212 -0.065801
0.022388 -0.108355 0.293095
-0.035535 0.000945 -0.357343
-0.092788 0.076860 -0.124965
0.052523 -0.021297 -0.356713
-0.078615 -0.069543 -0.102437
-0.086781 0.110651 0.055524
-0.021080 -0.100409 0.241937
0.096431 -0.097357 0.366023
0.013764 -0.108152 -0.033278
0.102764 -0.079290 0.022627
0.072559 -0.104475 -0.069130
-0.068141 0.066166 -0.345843
-0.082416 0.020646 -0.159073
0.082812 -0.061051 -0.138786
-0.018631 -0.009423 -0.376635
-0.042124 -0.108910 0.407993
-0.133644 0.049980 -0.046465
-0.119510 0.096544 -0.046055
-0.060266 -0.010000 -0.213538
-0.017644 -0.100009 -0.102494
-0.052135 -0.002574 -0.349058
0.107869 -0.077009 0.307779
-0.027832 0.013969 -0.389227
0.077540 -0.105629 0.372634
0.070528 -0.095203 0.099559
0.129164 -0.043112 0.172682
0.128195 -0.055986 -0.088232
-0.001757 -0.050340 -0.322434
-0.083314 0.109704 0.431614
-0.096669 0.079661 0.188991
-0.021295 -0.042672 -0.245519
0.123236 -0.091689 0.413983
-0.028840 -0.104942 0.335117
0.097439 -0.085166 0.289655
0.038063 -0.104259 0.201205
-0.053523 0.101388 -0.253460
-0.091498 0.081643 0.286396
-0.028704 -0.047662 -0.170952
0.001480 0.083198 -0.395763
0.069925 -0.122960 0.415393
0.089088 -0.085611 0.212705
-0.112723 0.034956 0.369926
0.072440 -0.101440 -0.072310
-0.039481 0.127555 0.392586
-0.074272 0.070782 -0.238961
-0.091890 -0.064258 -0.083841
-0.022656 -0.045041 -0.323795
-0.061614 -0.107188 0.410508
-0.060385 -0.007863 -0.222153
-0.083609 -0.063707 0.139671
-0.113229 -0.011317 0.303449
-0.102707 0.070509 0.168824
-0.095814 0.007059 -0.139421
-0.115229 0.060758 0.417678
0.070039 -0.098269 0.198360
-0.101240 0.069655 0.287695
-0.032117 0.116042 -0.274205
-0.018274 -0.044473 -0.304789
-0.051735 0.128388 0.022693
-0.038349 -0.032832 -0.244823
-0.009412 -0.113323 0.339535
-0.038860 -0.019187 -0.343099
-0.116876 0.060885 0.004855
-0.085864 0.102322 0.221413
-0.033399 0.061291 -0.390711
-0.004801 -0.113046 0.333356
0.064124 0.011040 -0.389170
-0.014504 -0.080184 -0.135562
-0.073968 0.041202 -0.341888
0.040151 -0.107897 0.262612
-0.061693 0.079670 -0.195326
-0.079513 0.072306 -0.318712
-0.111785 -0.031951 0.290412
0.053624 -0.040835 -0.252231
0.047273 0.003910 -0.396283
0.083733 -0.009061 -0.267079
0.018076 -0.054555 -0.171560
-0.026761 -0.097388 0.180790
0.011007 -0.026415 -0.362162
0.066058 -0.090521 -0.014207
-0.042507 0.104216 -0.191402
-0.022908 -0.096802 0.135953
-0.048154 0.058586 -0.374710
0.031998 -0.042099 -0.356348
-0.072792 0.078239 -0.250113
-0.056117 0.126947 0.165177
0.064225 -0.104435 -0.063682
0.011804 -0.127796 0.407883
-0.114515 0.023615 0.263792
-0.056223 0.146336 -0.098310
-0.038719 -0.022279 -0.339862
-0.128843 0.074658 -0.053873
-0.070295 0.069901 -0.192027
-0.117819 -0.010638 -0.014907
-0.060367 -0.009854 -0.251963
-0.012429 -0.101502 0.205733
-0.078905 -0.065601 -0.023668
-0.017019 -0.101894 0.205653
-0.099355 -0.036356 0.211542
0.089938 -0.094983 0.330973
-0.041521 -0.089843 0.113971
0.004686 -0.112883 -0.061198
-0.043018 -0.019562 -0.343152
-0.100003 0.003518 -0.136175
-0.067643 0.113818 0.380967
0.073752 -0.024354 -0.303226
-0.029884 -0.099718 0.278547
-0.004338 -0.110108 -0.084180
0.104345 -0.017196 -0.150308
0.136885 -0.056665 0.391697
-0.071471 -0.104664 0.413208
-0.091383 0.086612 0.374757
0.065467 -0.099656 -0.030266
-0.080685 0.108797 0.143384
-0.026841 -0.124370 0.412970
0.071123 -0.106615 0.334717
-0.042996 0.105489 -0.196198
-0.077421 0.068703 -0.246743
0.006646 -0.020641 -0.368641
-0.038455 -0.098242 -0.055521
-0.056681 0.123741 0.258018
-0.116903 0.089179 -0.094821
0.029245 -0.104347 0.213119
-0.095303 0.008953 -0.133453
0.039058 -0.115622 0.366208
0.069150 -0.096243 0.177025
-0.061389 0.078939 -0.148124
-0.009408 -0.099740 0.127686
-0.045093 0.137421 0.078643
-0.042111 0.125238 0.306757
0.000427 -0.051890 -0.208095
-0.091912 -0.062813 -0.098107
-0.038156 0.111008 -0.272633
0.018499 -0.105470 0.155751
-0.112727 -0.012898 0.331907
-0.060279 0.149679 -0.035234
-0.057597 0.120905 0.339240
0.051611 -0.103431 0.195404
-0.099487 -0.037668 0.263915
-0.018626 0.041876 -0.403105
-0.097069 0.079221 0.134733
-0.020996 -0.107470 -0.056811
-0.118832 0.038722 0.068345
-0.045929 -0.039258 -0.156025
-0.070180 0.141249 -0.084528
0.088146 -0.084188 -0.107744
0.005232 0.015546 -0.412865
-0.063706 -0.024715 -0.147556
-0.093775 0.079864 -0.122173
-0.095523 0.087070 0.105981
0.084768 -0.098969 0.321820
-0.043674 -0.031260 -0.282983
0.023810 -0.113927 0.337311
0.115986 -0.068032 0.018685
0.015940 -0.053537 -0.272584
-0.078214 -0.077775 -0.061933
-0.050920 -0.086403 0.083880
-0.039195 0.113976 -0.269867
0.098558 -0.087394 -0.065034
-0.063983 0.137923 -0.015986
-0.058072 0.124173 0.216568
-0.101681 0.079208 0.081017
0.099950 -0.024781 -0.149247
-0.094995 0.020950 -0.134400
-0.031161 -0.092777 0.207406
0.096743 -0.097287 0.372361
-0.088710 -0.059347 0.319530
-0.069330 0.074209 -0.341628
-0.063032 0.117760 0.276688
0.009403 0.093342 -0.386716
-0.072620 -0.088284 0.338628
0.110639 -0.061545 0.087883
-0.088912 -0.049939 0.099256
-0.102223 0.079772 0.422726
-0.084222 -0.040174 -0.119169
-0.050479 0.105507 -0.142046
0.039486 -0.054687 -0.162773
-0.022758 -0.095895 0.147775
-0.085702 0.118037 -0.003562
-0.065164 0.078384 -0.220326
0.054584 -0.106206 0.275138
0.011293 -0.104964 0.230988
-0.022423 0.041532 -0.403286
-0.022141 -0.042707 -0.275152
0.075399 -0.096807 0.216541
-0.073792 0.115857 -0.119720
-0.083350 0.124869 0.038545
0.096268 -0.071164 -0.120451
-0.024361 0.118240 -0.233024
-0.042675 0.114562 -0.253707
-0.021608 -0.098410 0.214291
-0.024158 -0.052489 -0.159064
-0.110498 -0.026318 0.378466
-0.092555 0.092509 0.146788
-0.078558 -0.070953 -0.088206
-0.088547 -0.044733 -0.122957
-0.026480 0.116672 -0.144609
-0.045639 0.101358 -0.223840
0.031963 -0.050058 -0.300015
-0.060834 -0.082884 -0.105784
-0.071286 0.096486 -0.131634
-0.045304 0.127317 0.236956
0.067577 -0.095710 0.138037
-0.076430 -0.028956 -0.144486
0.088230 -0.077070 -0.006737
0.051845 -0.110866 -0.051918
-0.088886 -0.045900 -0.000611
-0.082011 0.099252 0.356118
-0.013279 -0.102656 -0.099270
-0.066163 -0.002107 -0.296610
0.064344 -0.097053 0.170982
-0.085455 0.041545 -0.318624
-0.025022 -0.088310 0.012083
-0.114189 -0.008048 0.306489
-0.099849 0.123001 -0.070315
-0.097118 0.081608 0.202769
0.104196 -0.031506 -0.148168
-0.030417 0.096240 -0.358682
-0.081724 -0.095547 0.428135
0.063992 0.036608 -0.396688
0.013658 -0.111874 0.314967
-0.061803 0.080124 -0.153008
0.108005 -0.068904 0.127158
-0.031915 -0.093063 0.150232
0.005801 -0.005586 -0.403546
0.055804 -0.108254 -0.060595
-0.078355 -0.075467 -0.045219
0.045524 -0.124977 0.408526
-0.037909 0.117311 -0.327067
-0.060464 0.116579 0.347335
-0.118695 0.008279 0.399479
-0.083072 0.049989 -0.239806
-0.105398 0.056935 0.371916
-0.134670 0.041449 -0.078217
0.124610 -0.050860 0.008084
0.066881 -0.035321 -0.231059
-0.088776 -0.050468 0.055180
-0.008078 -0.049600 -0.211389
-0.105768 0.075913 0.419308
0.026902 -0.108161 0.286995
-0.057231 0.086898 -0.264194
-0.044903 0.135501 0.436001
0.076483 -0.091746 0.134857
0.115969 -0.056343 0.102167
0.070039 -0.069323 -0.137910
0.009258 -0.110095 -0.044487
-0.006677 -0.101581 0.034237
-0.044172 0.144970 0.055625
-0.051122 -0.084382 0.068997
-0.025224 -0.101660 -0.037802
-0.038922 0.125089 0.270592
0.083838 -0.011924 -0.234504
-0.032540 -0.108095 0.401783
-0.080346 0.026143 -0.321170
-0.074607 0.111091 0.426589
-0.114480 0.023192 0.191577
-0.106129 -0.045878 -0.072614
-0.036434 0.117324 -0.266889
0.097646 -0.084849 0.008744
0.083794 -0.090292 0.197888
-0.031298 0.033005 -0.392852
-0.003237 -0.087068 0.006727
-0.001956 -0.094983 0.059752
-0.117171 0.020867 0.194682
-0.021868 -0.095542 0.204896
-0.009139 -0.040615 -0.349508
-0.018314 -0.045548 -0.310053
0.088798 -0.001142 -0.219700
-0.053219 0.119332 0.319680
-0.052395 0.095500 -0.292369
0.028889 0.072980 -0.394169
-0.098880 0.075499 0.263052
0.125680 -0.044385 0.109870
-0.075576 0.015881 -0.297214
0.095528 -0.039470 -0.147168
0.020745 -0.052124 -0.237587
-0.096180 0.111616 -0.098873
-0.032157 0.109929 -0.150603
-0.107754 0.084678 0.002468
0.056570 -0.105047 -0.038348
-0.123760 0.047425 -0.115011
0.065252 -0.054401 -0.153960
-0.006197 -0.076379 -0.138645
-0.033963 -0.098758 0.328132
0.013028 -0.112605 0.290148
-0.004140 -0.053383 -0.232535
-0.044353 0.108466 -0.247281
-0.014411 -0.099009 0.100885
-0.113797 -0.023125 0.148960
-0.103914 0.062273 0.245091
-0.071924 0.074988 -0.211235
0.019054 -0.051450 -0.319069
-0.071202 0.107925 0.351731
-0.052356 0.134862 0.088522
0.020322 -0.052331 -0.256543
-0.021877 0.104753 -0.357145
-0.091612 0.038348 -0.331542
-0.085411 -0.022746 -0.127040
-0.094458 -0.020491 -0.124644
-0.042062 0.135479 0.010911
-0.080689 0.097786 0.390631
-0.016367 -0.103523 0.239303
0.061856 -0.035840 -0.279768
-0.006290 -0.108148 0.270698
-0.070462 0.118152 0.163587
0.042098 -0.050031 -0.218366
0.019908 -0.101718 0.043575
-0.039177 -0.091904 -0.106841
-0.049744 -0.048908 -0.146380
-0.100404 0.077226 0.174915
0.018375 -0.111478 0.315051
-0.077945 0.057071 -0.191582
0.030294 -0.109505 0.244113
0.024083 -0.054832 -0.283124
-0.063618 -0.086954 0.242536
0.010993 -0.084897 -0.134329
-0.083323 -0.069305 0.311347
-0.020903 -0.103633 0.245315
-0.049810 0.039986 -0.367645
-0.121131 0.052046 -0.116839
0.036394 -0.047530 -0.289422
-0.013103 -0.042918 -0.341152
-0.038808 0.126947 0.290254
-0.057540 0.142751 -0.017761
0.039547 -0.105836 -0.032957
0.130684 -0.044874 0.200192
-0.051444 -0.094741 -0.047795
0.116237 -0.062712 0.108826
-0.020736 -0.046662 -0.209416
-0.066313 0.001029 -0.299892
-0.060054 0.145913 -0.098561
0.109846 -0.074273 -0.103014
-0.090784 0.107286 -0.109034
0.043080 0.056600 -0.403753
-0.074025 -0.075317 -0.095931
0.106376 -0.068292 0.094459
-0.073801 -0.074533 0.171123
-0.045168 0.133946 0.177205
-0.130710 0.034269 0.045359
0.106733 -0.078255 0.194162
-0.093444 0.081177 0.417718
-0.088815 0.088109 0.298230
0.060874 -0.038056 -0.309449
-0.035456 -0.033709 -0.317827
-0.073995 -0.070569 0.179725
0.012191 -0.134447 0.414851
-0.083336 0.038220 -0.226677
-0.104081 -0.022750 0.062945
-0.009721 -0.110161 0.329832
0.033073 -0.107161 -0.108788
-0.036504 0.110726 -0.155704
-0.049929 0.103723 -0.149692
-0.121831 0.077569 -0.027504
-0.114832 0.039268 0.092649
-0.081434 0.027971 -0.341813
0.120193 -0.061364 0.012180
-0.027766 0.131872 -0.331996
-0.111415 -0.033295 0.313104
0.035090 -0.106998 -0.038594
0.044247 -0.118459 0.376092
-0.049576 0.129661 0.125537
0.027915 -0.119278 0.005327
-0.047894 0.134585 0.094094
-0.038464 -0.090592 -0.025227
-0.049929 0.091545 -0.190816
-0.091868 -0.065755 -0.069527
0.032698 -0.098106 -0.118262
-0.118748 -0.004860 0.088121
-0.066573 0.143984 -0.046232
-0.113529 0.020025 0.188630
-0.078791 0.131189 -0.093469
-0.106966 0.056521 0.192026
-0.108516 -0.018179 0.006696
-0.068846 -0.078814 0.207997
0.101170 -0.069640 -0.013102
0.044727 -0.115019 0.391688
-0.091326 0.110206 -0.004579
0.048537 -0.045402 -0.303107
0.124593 -0.053643 0.176796
-0.131309 0.019752 0.428438
-0.004629 -0.108817 -0.098310
-0.081315 0.096372 0.347459
0.087701 -0.087452 0.182587
-0.038684 0.112681 -0.265088
-0.058130 0.092958 -0.141337
0.074457 -0.100286 0.302969
-0.096373 0.089338 0.090138
0.074043 -0.026389 -0.294699
-0.117717 0.020422 0.093376
-0.043067 -0.017368 -0.332687
0.005444 -0.104977 0.179359
-0.079108 -0.062430 0.106928
0.103945 -0.110104 0.418366
-0.025678 -0.104241 -0.079802
-0.036231 0.121772 -0.139570
-0.064970 -0.075538 0.064690
0.061133 -0.064949 -0.149789
0.060354 0.002403 -0.374190
-0.045744 -0.091953 0.134852
-0.039054 -0.099916 0.296913
0.044185 -0.066544 -0.149925
-0.087802 -0.065394 0.013435
-0.052651 0.123666 -0.125269
0.031487 -0.067724 -0.150040
-0.092282 0.091848 0.152157
-0.045515 0.084101 -0.351344
0.113991 -0.062994 0.153523
-0.018873 -0.099392 0.100810
-0.105226 0.055076 0.340275
-0.056747 0.148807 -0.078062
-0.082737 -0.073578 -0.079538
0.025493 -0.100260 0.087293
-0.028831 0.118090 -0.266458
0.040640 -0.090046 0.008106
-0.015134 -0.064002 -0.146115
-0.121739 -0.013726 0.409279
-0.080473 0.028174 -0.310542
-0.040679 0.109744 -0.210328
-0.051052 -0.091719 0.032009
-0.097774 -0.073080 0.403025
0.023009 -0.035382 -0.389808
-0.082984 0.092870 0.422109
-0.114004 0.022756 0.328823
0.015931 -0.108086 0.228354
0.075047 -0.122568 0.421907
0.103434 -0.084016 0.314606
-0.059821 -0.085073 0.107056
-0.083649 -0.061311 0.047891
0.041023 -0.103065 0.015338
0.078795 -0.019755 -0.281970
0.078579 -0.086117 0.078194
0.073823 -0.105875 0.398008
0.016856 0.073478 -0.399265
-0.042340 0.127978 0.201544
0.056637 -0.102308 0.207521
0.017296 -0.098388 0.116358
-0.104262 0.064039 0.264682
-0.076553 0.127273 -0.007371
-0.110794 -0.008286 0.238484
0.036883 -0.051569 -0.272408
0.122214 -0.034211 -0.130682
-0.094647 0.119077 -0.098054
-0.077166 0.099323 0.367979
0.005972 -0.012990 -0.402193
-0.074122 0.012005 -0.269818
-0.002286 -0.132342 0.417498
0.115528 -0.053692 0.092975
0.087388 -0.069834 -0.129158
0.014442 -0.096168 0.005327
-0.122972 0.066809 0.028481
-0.114762 0.026720 0.392349
0.088062 -0.001389 -0.268237
-0.070048 0.132114 -0.009138
0.114815 -0.075190 -0.088778
-0.018604 -0.007132 -0.366262
0.039895 -0.099559 0.119978
-0.064824 -0.087659 -0.088479
0.025647 -0.099709 0.093111
-0.001440 -0.050128 -0.303486
-0.004814 -0.047481 -0.348274
-0.115916 0.098248 -0.068562
-0.061288 0.125846 0.116468
-0.074351 0.117650 -0.112065
-0.052646 0.130942 0.438075
-0.055853 -0.095243 -0.073248
-0.092951 0.030407 -0.332810
-0.097523 -0.051661 0.017227
-0.050061 0.045263 -0.379546
0.077553 -0.021927 -0.353401
-0.082522 0.106348 -0.116178
-0.077959 0.066448 -0.270281
-0.108516 -0.060510 0.420678
-0.022018 -0.123969 0.413063
-0.107503 0.109576 -0.064431
-0.079139 0.026280 -0.253337
0.127372 -0.041971 0.056511
-0.119435 0.007790 0.023121
-0.088216 0.095610 0.215326
0.094149 -0.081316 0.221523
-0.001577 -0.020266 -0.363527
-0.102029 0.117456 -0.063365
-0.017481 -0.037175 -0.347601
-0.025022 0.118469 -0.266246
0.003841 -0.052793 -0.251434
-0.090723 0.094989 -0.120345
0.002563 -0.019879 -0.363492
-0.047004 -0.026353 -0.246109
