-0.055188 -0.085426 0.200923
0.046537 -0.084435 -0.117667
-0.117427 0.033199 0.121630
-0.072854 0.041528 -0.228672
-0.093903 0.062282 -0.119874
0.118440 -0.045050 -0.050865
0.093361 0.009402 -0.488093
-0.024110 0.033309 -0.397001
-0.079487 0.136254 0.250425
-0.056958 0.107339 -0.156875
-0.102029 0.070280 -0.071808
0.010161 -0.092948 0.326018
-0.042525 0.072196 -0.255764
0.025444 -0.091499 0.137728
-0.066256 0.123803 0.090764
-0.070132 0.110338 -0.098010
0.021441 -0.088526 0.347428
-0.082706 -0.064447 0.061642
0.042291 -0.094353 -0.042431
0.104055 0.005962 -0.325134
0.083847 0.034027 -0.421956
0.084794 0.020739 -0.432412
0.003686 -0.088509 -0.195300
-0.068273 0.040999 -0.250056
-0.135608 0.044805 0.326471
-0.010919 0.063035 -0.366491
0.014226 -0.087694 -0.132589
-0.004585 0.039903 -0.519171
-0.055122 0.095073 -0.192886
-0.062675 -0.092468 0.404967
-0.092907 0.087109 -0.012890
-0.086626 0.097609 0.048376
0.008311 -0.002292 -0.561925
-0.105473 -0.046759 0.004419
-0.032135 -0.095965 0.038360
0.002392 -0.054123 -0.322830
0.012768 -0.091530 0.253499
0.010020 -0.070301 -0.272523
0.029999 0.006380 -0.555943
0.030783 -0.089848 0.158116
0.024453 -0.006864 -0.558414
0.019388 -0.009678 -0.558573
0.012002 -0.008709 -0.557661
0.103464 -0.050058 -0.147340
0.090317 -0.062976 0.060787
-0.032135 0.085647 -0.256041
-0.097814 0.109449 0.194087
0.027730 -0.065271 -0.273518
-0.062948 0.131858 0.114385
0.069872 -0.068310 0.323137
-0.106191 0.071918 -0.055895
0.105631 -0.040685 0.067002
-0.018895 -0.073335 -0.212098
0.057073 -0.085668 -0.015440
0.001427 -0.095763 0.386116
-0.131186 0.000558 0.324146
-0.033527 0.009930 -0.405567
-0.021260 -0.013365 -0.468630
-0.124553 0.011520 0.237079
-0.119730 0.072698 0.242655
-0.064873 0.003601 -0.289431
0.082173 0.008420 -0.548465
0.062917 -0.068662 0.317429
-0.105953 0.007389 -0.128797
0.009712 0.043950 -0.547941
0.063609 0.036154 -0.545289
-0.136533 -0.032660 0.398030
-0.062574 0.120764 0.049168
-0.072519 0.108140 -0.080058
-0.109239 0.064642 -0.023293
-0.039442 -0.094988 0.293610
-0.035381 0.007010 -0.388491
-0.112564 0.017127 -0.092434
0.034064 -0.088702 0.068473
0.057923 -0.076053 0.179174
0.000656 -0.093389 0.372625
0.033381 -0.085751 0.208552
0.036090 0.055049 -0.508966
-0.029131 0.017607 -0.389024
0.112317 -0.011797 0.282172
-0.027510 0.024016 -0.384479
0.021661 -0.094538 0.102739
0.122796 -0.022517 -0.172956
0.101104 -0.039892 0.206988
-0.065340 0.057410 -0.219229
-0.061966 0.127058 0.091275
0.100368 -0.045971 0.106840
-0.055104 0.147829 0.222756
-0.071867 0.140623 0.231578
0.060323 -0.050098 -0.286027
-0.005519 -0.054000 -0.302904
-0.087256 0.129938 0.242959
-0.124024 0.047725 0.205332
-0.102315 -0.010149 -0.133039
0.016552 0.073641 -0.359440
-0.031765 0.098468 -0.202140
0.051928 0.026782 -0.547113
-0.111732 0.073878 0.171422
-0.018230 0.099420 -0.214547
0.007263 -0.092988 0.232657
0.020031 -0.094525 0.137579
-0.119959 0.019391 0.167044
0.068709 -0.026054 -0.543069
0.076439 0.024029 -0.549751
0.048453 0.051504 -0.536921
0.025735 0.060564 -0.529909
0.025066 -0.006150 -0.554662
0.046233 -0.085263 -0.098486
0.034059 -0.035233 -0.541774
0.063952 -0.072657 0.351845
-0.098391 0.078173 0.007203
-0.073202 0.112034 -0.026918
0.099492 -0.060307 -0.053177
0.099073 0.012855 -0.531094
-0.054236 -0.090715 0.373506
-0.049418 0.002676 -0.335347
-0.066886 0.032371 -0.264216
0.118290 -0.040381 -0.140024
-0.075915 -0.062108 -0.081194
-0.016931 0.101067 -0.226214
-0.081522 0.105846 -0.058753
-0.046062 0.140416 0.131386
0.001951 -0.052538 -0.334784
0.111670 -0.048032 0.002182
-0.002365 -0.060831 -0.280310
0.047740 -0.036012 -0.537313
-0.035945 -0.056907 -0.216784
0.035407 -0.037822 -0.536511
-0.016759 0.042422 -0.430289
-0.001462 -0.096441 -0.133056
-0.089586 0.094742 0.010370
0.129481 -0.017399 -0.002381
0.078368 -0.046684 -0.275108
0.017631 -0.094565 0.035589
-0.112009 -0.018725 0.075207
-0.052624 0.115139 -0.140191
-0.022731 0.083454 -0.268946
0.008201 0.084815 -0.314783
-0.112881 0.047417 0.007441
0.056033 -0.079863 0.101691
0.071374 -0.031225 -0.532587
0.066375 -0.034013 -0.532736
0.006981 -0.091275 0.066262
-0.086182 0.049813 -0.183861
-0.099329 0.077538 0.013343
0.041776 -0.037615 -0.531098
-0.084922 0.135611 0.345534
0.034795 -0.085527 0.173144
-0.092656 -0.059052 0.171387
0.056553 -0.073353 0.173726
0.036742 -0.088698 0.007313
-0.027854 0.038057 -0.360127
-0.099316 0.082198 -0.057014
0.072880 -0.064456 0.383399
-0.113692 0.088422 0.265109
0.007056 -0.092609 0.386257
-0.035495 -0.092376 0.193189
0.035429 -0.087813 0.358914
0.116308 -0.011797 0.421986
0.084336 -0.070856 -0.041263
0.111436 -0.019156 0.192977
-0.118008 0.095601 0.329079
-0.065758 0.071443 -0.194842
0.050131 -0.078493 0.412080
-0.026021 -0.096956 -0.063563
0.103821 -0.031396 0.196162
-0.055240 0.132550 0.104783
-0.115854 0.022796 0.081136
0.103125 -0.057431 0.000085
-0.039904 0.124010 -0.108387
-0.081257 0.082110 -0.115963
-0.056320 -0.061333 -0.182813
-0.014623 -0.095287 0.398158
0.051805 -0.078453 0.186499
0.116136 -0.024799 0.133381
0.069423 -0.069288 0.151717
0.116819 -0.038457 -0.126194
-0.099558 0.083995 0.086963
0.112590 -0.027710 -0.192195
0.077562 -0.061602 -0.198044
0.071383 0.042387 -0.544087
-0.081460 0.106625 0.059462
0.021221 -0.091310 0.070063
-0.050122 -0.085729 0.115151
-0.057236 -0.055163 -0.238683
-0.070145 0.127137 0.132716
-0.126755 0.066778 0.290835
0.015112 -0.038963 -0.516682
-0.060336 -0.079726 -0.030565
-0.000370 -0.096133 0.276102
0.094964 0.007235 -0.507847
0.099765 -0.025058 -0.271457
0.002224 0.044021 -0.506865
0.048096 -0.093204 -0.029918
-0.083292 0.100292 0.055088
0.074197 -0.014439 -0.510860
0.023621 -0.093622 0.366433
0.091454 -0.021187 -0.294069
-0.086970 0.048985 -0.177959
-0.117145 -0.049243 0.342882
-0.084112 -0.079052 0.364706
-0.130675 0.029821 0.280383
0.111599 -0.037430 0.040047
-0.094726 0.085801 -0.000668
-0.015350 -0.098150 0.020566
0.021520 -0.038747 -0.511247
-0.102905 0.069558 -0.065774
-0.036385 0.135294 -0.001712
-0.074686 0.064224 -0.190089
-0.130266 0.078212 0.339390
-0.054624 0.117562 -0.106176
0.056566 -0.069548 0.304009
0.039340 -0.080594 -0.166473
-0.110705 0.063449 -0.042105
0.130768 -0.018254 -0.036216
0.121628 -0.019306 -0.197185
-0.086080 0.122909 0.193123
0.101364 -0.029740 -0.235455
0.089591 -0.067922 -0.041118
-0.104641 0.081348 0.118318
0.043058 -0.030110 -0.505341
-0.032254 0.077578 -0.293704
0.026752 -0.082871 -0.165169
-0.115255 0.006676 0.030146
-0.140149 0.046527 0.373594
0.020802 -0.087385 -0.127154
0.123584 -0.009594 -0.219669
0.036755 0.053918 -0.541206
0.093246 0.009627 -0.494968
-0.025960 0.059287 -0.337087
-0.007814 -0.098546 0.018897
0.098897 -0.058580 -0.065492
0.042098 0.057199 -0.485517
-0.094466 0.037744 -0.171137
-0.068176 0.115910 -0.032459
-0.115357 0.054014 0.119476
0.110357 -0.021372 -0.240436
-0.073876 -0.069860 -0.030926
0.047176 -0.026133 -0.498765
0.032403 -0.085584 0.398114
0.064269 0.013604 -0.546011
0.024577 -0.089222 0.287770
-0.008910 0.088915 -0.265335
-0.072272 0.117636 -0.016506
-0.108640 0.100133 0.303269
-0.006699 -0.099361 -0.133215
0.105010 -0.008436 -0.310863
-0.108838 -0.029820 -0.028592
0.126341 -0.033136 -0.080520
-0.029479 0.031693 -0.364632
0.083900 -0.045217 0.390516
-0.046885 -0.088253 0.085677
-0.113643 0.113959 0.385557
-0.078408 0.136598 0.243963
0.090441 -0.044389 0.404192
-0.028576 0.128013 -0.117086
0.055822 -0.029674 -0.494524
-0.001040 0.058335 -0.406501
-0.028175 0.011661 -0.437834
-0.033130 0.014410 -0.389636
0.033377 -0.037162 -0.493969
0.122201 -0.029502 0.000887
-0.081033 -0.065729 0.046984
-0.074721 0.134721 0.166212
-0.100773 0.047130 -0.135228
0.033253 0.057260 -0.499448
0.051131 -0.077819 0.193977
-0.092246 0.063841 -0.131801
0.056747 0.047033 -0.538784
0.132794 -0.020156 -0.076820
0.015208 -0.091200 0.355074
-0.114546 0.021157 -0.007561
-0.083658 0.056974 -0.185341
0.065322 -0.008110 -0.552420
0.106948 -0.042271 0.052503
0.027109 0.060652 -0.474849
-0.118308 0.049896 0.173250
0.105609 -0.025323 0.270015
-0.112520 0.048218 0.032687
-0.063631 0.063722 -0.214811
-0.093691 0.087400 0.049648
0.132353 -0.016342 -0.146745
0.003902 0.070218 -0.374327
-0.085111 0.097984 -0.020175
0.087560 -0.073556 -0.088633
0.076840 -0.067112 0.109597
0.083684 -0.045900 -0.244299
-0.062750 0.097944 -0.161760
-0.059271 -0.073357 -0.121288
-0.074576 0.035163 -0.233125
0.051016 -0.072653 0.303863
-0.026466 0.120239 -0.137086
-0.084045 -0.083360 0.407821
-0.058958 -0.082395 -0.025156
-0.064155 -0.087518 0.377743
-0.033941 0.114681 -0.144072
-0.113427 0.083022 0.186168
0.046158 -0.036717 -0.483147
0.014134 -0.085166 -0.163870
-0.005620 -0.096124 0.380329
0.011650 -0.095005 0.167106
0.027400 0.081194 -0.346341
-0.069788 -0.082695 0.292478
-0.064362 0.062876 -0.208953
0.110661 -0.011136 0.334135
-0.122897 0.006011 0.213026
0.072911 -0.066099 -0.186125
-0.045885 0.128330 -0.058335
0.092942 -0.055779 0.070067
0.078945 -0.068178 0.067746
-0.010192 0.053913 -0.436416
-0.086811 0.144178 0.397035
-0.140885 0.036392 0.371648
0.073506 -0.084100 -0.102987
0.059530 -0.070741 0.244981
-0.076025 0.067254 -0.162095
0.082909 -0.054106 0.349022
0.000374 -0.093340 0.227002
0.037909 -0.034642 -0.475655
-0.005492 0.040973 -0.486855
-0.038499 0.019880 -0.376066
-0.108891 0.069800 -0.037709
-0.054813 0.126313 0.025050
-0.143580 0.035956 0.385059
-0.099087 -0.060822 0.295499
0.129081 -0.023521 -0.129401
-0.118792 0.076984 0.227200
-0.071625 0.108497 -0.055468
0.122430 -0.038690 -0.075371
0.110701 -0.023504 -0.209544
0.015006 -0.086073 -0.170745
0.077474 -0.010925 -0.467991
0.093198 -0.041901 -0.187491
0.068035 -0.087808 -0.083951
-0.088516 -0.056052 -0.056600
0.097052 -0.035470 0.259995
0.021256 -0.067777 -0.248188
-0.115515 0.005786 0.004780
-0.107653 0.081260 0.163129
-0.097994 0.101054 0.125242
-0.077470 0.103908 -0.043915
-0.122857 0.065787 0.244659
0.109899 -0.006018 -0.292074
-0.034108 0.027557 -0.359515
-0.028933 0.014110 -0.410628
-0.116599 -0.017826 0.152606
-0.064957 -0.077467 0.025310
0.082733 -0.059668 0.230415
-0.044938 0.093738 -0.211662
-0.089917 0.089796 0.024953
-0.130834 -0.028203 0.361689
-0.112247 0.022527 -0.106630
0.078808 -0.013519 -0.462737
-0.079421 0.140473 0.303449
-0.044582 0.090051 -0.233513
0.068097 -0.029489 -0.465600
-0.052052 0.092826 -0.202554
0.032932 -0.064610 -0.242616
0.055214 -0.041659 -0.467273
0.049127 -0.052718 -0.310176
0.114348 -0.022632 0.155619
-0.060477 -0.081858 0.254155
-0.037755 0.010243 -0.384549
0.059275 0.052887 -0.473290
0.004263 -0.025102 -0.457293
-0.040644 0.123283 -0.102423
0.001559 0.063281 -0.434637
0.091326 -0.037686 -0.204840
0.010738 0.074596 -0.361814
-0.116625 0.079595 0.240647
0.051483 -0.082382 0.074287
0.094303 -0.057338 0.055568
-0.065362 0.129603 0.101365
0.017094 0.074565 -0.365135
0.115238 -0.021663 0.100427
-0.051598 0.050103 -0.269624
0.040182 0.029200 -0.551372
-0.063450 0.115236 -0.084986
0.110851 0.004227 -0.289057
0.059341 -0.037695 -0.460662
0.007875 0.066541 -0.416609
-0.112806 0.001901 -0.055587
-0.021736 0.030098 -0.400925
0.051272 -0.079361 0.396304
-0.003845 -0.099410 -0.048839
0.104627 -0.058233 -0.033631
0.104332 -0.025168 0.314033
0.033051 -0.090495 0.115772
-0.113859 0.011054 -0.072108
0.061222 -0.088971 -0.070112
-0.008963 -0.093296 -0.162892
0.118193 -0.027045 -0.160945
0.009254 0.054653 -0.544897
-0.002854 -0.096578 0.183741
-0.046898 -0.066306 -0.166565
0.063935 -0.068090 0.281123
0.113639 -0.029357 0.056519
0.087230 -0.071116 -0.119988
-0.040129 0.050583 -0.299918
0.099633 -0.059479 -0.072508
0.070572 -0.060289 -0.215468
-0.019512 -0.100889 0.411592
0.117735 -0.044156 -0.043809
-0.064930 -0.080294 0.184129
0.041014 -0.041267 -0.453430
0.113348 -0.028714 -0.199021
0.026330 -0.039478 -0.451285
0.016675 -0.034893 -0.448982
0.086697 -0.039408 -0.242647
-0.079381 -0.046151 -0.200056
-0.117938 0.022998 0.119520
0.006135 0.096068 -0.273315
0.037636 0.073751 -0.413601
-0.112106 -0.019918 0.049499
-0.012315 0.086634 -0.271677
0.086340 -0.004380 -0.442983
0.086067 -0.051802 0.212044
0.047374 -0.089249 0.099476
-0.086882 0.096667 -0.007984
0.008527 0.055609 -0.512776
-0.101870 0.102181 0.202465
0.034680 -0.066583 -0.256125
-0.105887 0.086264 0.141661
0.014429 -0.096846 -0.018219
-0.034496 0.023073 -0.375463
0.086833 -0.053881 0.225068
-0.015636 -0.094098 0.259172
-0.071140 -0.078026 0.265809
0.098302 -0.056867 -0.077789
-0.116665 0.060454 0.168890
-0.021168 -0.037602 -0.333528
-0.007805 -0.080087 -0.209724
0.041635 -0.083778 0.158412
-0.113511 0.021382 -0.069800
0.025475 0.074843 -0.412566
0.080350 -0.069719 0.053269
-0.075342 0.111030 0.047609
0.079725 -0.016399 -0.439252
-0.055355 0.051477 -0.254138
-0.143607 -0.008854 0.403131
0.047770 -0.085716 0.039831
0.066146 -0.038893 -0.443582
-0.027713 0.101618 -0.201594
-0.009571 0.076314 -0.318901
-0.124438 0.081916 0.333290
-0.027907 -0.100528 0.421629
0.036526 -0.086980 0.322270
0.017036 -0.098234 0.095274
0.019384 -0.040086 -0.438429
-0.030448 0.108510 -0.175823
-0.002986 0.069302 -0.365337
-0.128680 0.012578 0.283431
-0.092793 0.128251 0.275358
0.016706 -0.096463 -0.071253
0.093418 0.017740 -0.425757
0.056795 -0.092759 -0.077261
0.087547 0.004517 -0.428550
-0.133525 0.071341 0.341499
-0.105491 0.106669 0.239052
0.081055 -0.018993 -0.434002
0.002303 0.047232 -0.485640
-0.140801 0.052799 0.391578
0.070299 -0.034933 -0.436949
0.065247 -0.037752 -0.437099
-0.006567 -0.095327 0.242012
0.005413 0.051552 -0.545509
0.073008 -0.085734 -0.064554
-0.116440 0.032459 0.089557
0.035442 -0.044420 -0.435354
-0.085129 0.116337 0.143784
0.020732 -0.042680 -0.433161
-0.029501 0.078921 -0.281622
-0.123192 0.082185 0.326683
-0.004479 0.096596 -0.248800
-0.061517 0.056001 -0.234768
0.053395 -0.083338 -0.131369
-0.085270 0.104401 0.084325
0.091806 0.008508 -0.421868
0.088881 0.001906 -0.423273
0.048528 -0.086487 0.032630
0.073554 -0.068231 0.426227
0.067335 -0.035647 -0.338611
-0.093189 0.058304 -0.142151
-0.014002 0.046963 -0.396961
-0.037041 0.116980 -0.134342
0.088265 -0.061831 0.102559
-0.047110 0.020598 -0.333868
-0.075792 0.105291 -0.055996
0.036645 -0.052758 -0.339518
0.104033 -0.032797 0.216704
0.036786 -0.047006 -0.430109
0.022374 -0.092741 0.382099
-0.072519 0.016933 -0.255698
-0.095779 0.051169 -0.140614
-0.072836 -0.073811 -0.005658
0.023753 -0.092336 0.028538
-0.013914 -0.096243 0.109694
0.001154 -0.092332 0.198888
0.080310 -0.057237 0.260762
0.035293 0.047553 -0.545791
-0.092810 0.093174 0.060232
-0.027766 -0.040170 -0.308212
-0.111529 0.048835 0.026499
0.081517 -0.020438 -0.422247
-0.112309 -0.030480 0.133562
0.019344 -0.082263 -0.163711
0.014746 0.075623 -0.449673
0.063459 -0.035475 -0.424101
-0.057007 0.120605 -0.102379
0.131745 -0.014708 -0.158928
0.045912 -0.084448 0.417586
-0.070374 -0.046636 -0.227514
-0.092793 0.077486 -0.076732
-0.023661 -0.050419 -0.261265
0.079002 -0.067072 0.047913
0.050255 -0.060175 -0.224867
0.021577 0.075147 -0.391724
-0.048740 -0.085034 -0.048156
-0.005250 0.059071 -0.447022
0.097408 0.009886 -0.409897
0.093872 -0.034827 0.356025
-0.127887 0.062687 0.306550
0.067242 -0.086927 -0.076966
0.029659 -0.091253 0.041245
0.052259 -0.073727 0.288496
-0.082922 0.099997 0.023706
-0.075065 0.072760 -0.151779
0.069850 -0.035233 -0.418719
0.021058 0.077684 -0.364571
0.010086 -0.091156 0.304991
0.053386 0.053984 -0.475505
-0.061856 -0.073970 -0.068170
-0.105284 0.077538 -0.045461
-0.068128 0.151577 0.381188
-0.035826 0.050174 -0.321059
-0.026233 0.044408 -0.355630
-0.019098 -0.005846 -0.469625
0.122359 -0.039487 -0.056023
0.103632 -0.047675 0.030714
-0.082011 0.100613 0.017562
0.037310 -0.090561 0.019813
0.096589 0.011023 -0.403325
-0.051968 -0.052234 -0.238516
0.047044 -0.082135 0.178883
0.043397 -0.088372 0.012792
0.013856 -0.062650 -0.308265
-0.112247 0.032397 -0.073583
0.052413 -0.075405 0.309422
-0.134326 0.045087 0.319856
-0.068383 0.116033 0.029639
-0.023731 -0.097040 0.029450
-0.101712 0.075548 0.000530
-0.079553 0.020664 -0.230350
0.025330 -0.093860 0.014175
-0.086256 0.097363 0.017034
-0.033905 -0.074710 -0.178065
-0.122456 0.088501 0.337795
-0.111036 0.110805 0.381553
0.045731 -0.090755 -0.008622
-0.031919 0.063722 -0.317893
0.007849 0.063215 -0.437957
-0.114802 0.031574 0.026072
-0.002920 0.084414 -0.284600
-0.045159 0.041977 -0.310731
-0.071088 0.109136 0.031436
-0.104460 0.075975 0.101334
-0.047462 0.126983 -0.046271
-0.112401 0.102978 0.313800
-0.089190 0.056802 -0.157862
-0.000366 0.040982 -0.545210
-0.115537 0.020510 -0.001403
-0.091251 0.041074 -0.194762
0.060794 -0.032105 -0.404519
-0.050946 0.143737 0.180028
0.040688 -0.092702 -0.028284
-0.114934 -0.003917 -0.003672
-0.010355 0.063986 -0.372173
-0.019560 0.037454 -0.402066
-0.090084 0.089369 -0.061964
0.025193 -0.051939 -0.405603
0.015543 -0.047428 -0.403171
-0.083213 0.042867 -0.209803
-0.085274 0.083669 -0.100190
0.074831 -0.086694 -0.097737
-0.099430 0.033679 -0.165790
0.114000 -0.048085 -0.077367
0.072862 -0.064227 0.174157
-0.086014 -0.061976 0.091121
-0.074470 0.123860 0.132205
0.119765 -0.015615 0.067812
-0.011447 0.033684 -0.465137
0.075175 -0.022477 -0.397529
-0.023656 0.104767 -0.201052
-0.018415 0.061158 -0.351802
-0.069392 0.014634 -0.265436
-0.073329 0.079054 -0.147393
0.083389 -0.046464 -0.225523
0.021410 -0.090103 0.050181
0.018318 -0.074225 -0.249844
0.102804 -0.053035 -0.070637
-0.044388 -0.091926 0.347943
0.024268 -0.050851 -0.399049
0.098963 -0.053564 0.062954
-0.128041 -0.024015 0.339002
-0.083248 0.095117 0.038342
-0.100562 0.083449 0.093217
-0.053122 0.119055 -0.118077
0.019833 0.067034 -0.484279
0.085235 -0.053559 0.268531
-0.100271 0.076909 0.019496
-0.059138 -0.086465 0.280718
-0.114797 -0.035889 0.216955
0.079407 -0.018513 -0.390826
-0.105662 0.052737 -0.097041
0.053197 -0.077643 0.322706
0.068542 -0.034449 -0.393882
-0.132256 0.071610 0.334875
-0.042670 -0.087482 0.133681
0.074748 -0.070314 -0.168803
-0.033553 0.057419 -0.322341
-0.038512 -0.090196 0.223399
-0.120620 0.068752 0.196475
-0.045639 -0.095256 0.406504
-0.008514 0.093461 -0.249346
-0.026149 -0.093807 0.312818
0.048704 -0.085408 0.012942
0.041093 -0.086051 0.034334
-0.109067 0.057221 0.081779
-0.007008 0.037859 -0.470123
-0.103980 0.119416 0.323243
0.087644 -0.026662 -0.288951
0.097624 -0.052009 0.077480
0.086587 -0.007982 -0.382647
0.037279 -0.007529 -0.555961
-0.048079 0.131594 0.038378
-0.017534 -0.046112 -0.298804
0.113916 -0.030313 -0.186936
-0.111864 0.108013 0.361073
0.107785 -0.022380 0.403597
0.059279 -0.076022 0.144027
0.054637 -0.045530 -0.389095
-0.013319 0.041233 -0.445449
-0.002088 0.043065 -0.480676
0.098642 -0.055326 -0.116214
-0.066071 0.148309 0.278353
-0.101967 0.080084 -0.038850
0.085036 -0.064883 0.040844
0.007646 -0.047072 -0.383602
0.102905 -0.048428 -0.159474
-0.090331 0.121305 0.218735
0.089661 -0.061109 0.048199
-0.095206 -0.053921 0.033938
0.093823 0.002566 -0.374446
-0.115370 0.078195 0.207878
0.037239 -0.060752 -0.235688
-0.094634 0.110744 0.174959
-0.047418 0.105172 -0.169824
0.095726 -0.057902 0.021407
-0.066287 0.114135 -0.127762
0.067577 -0.066746 -0.217163
-0.107085 0.071205 -0.049843
-0.000366 -0.094437 0.255291
-0.088415 0.018021 -0.209411
-0.080531 0.137989 0.283370
-0.086111 0.132246 0.262871
-0.094845 0.109268 0.149074
-0.032826 0.047941 -0.330683
-0.136392 -0.029009 0.388649
-0.072114 0.042391 -0.234521
0.036971 0.065986 -0.450726
-0.041265 0.100649 -0.189195
0.124386 -0.028824 -0.098098
0.059922 -0.083030 -0.125965
-0.092740 0.087986 0.043460
-0.125403 0.049139 0.238180
0.096206 -0.032625 -0.235600
0.089243 -0.013188 -0.372124
-0.029880 0.027222 -0.380555
0.079037 -0.018888 -0.372411
0.105200 -0.034114 0.201650
0.002361 -0.100180 0.421105
0.071453 -0.083994 -0.050504
0.035306 -0.050172 -0.344768
-0.023458 -0.096582 -0.116319
0.036178 -0.073745 -0.189103
-0.103143 0.075063 0.037999
-0.116374 0.054891 0.151690
0.037570 -0.051855 -0.376423
-0.120307 0.005077 0.173770
0.097223 -0.006093 -0.321531
0.032883 -0.062399 -0.273364
-0.083310 0.066338 -0.152898
-0.099188 0.008160 -0.162597
0.043119 -0.081567 0.265267
-0.067749 0.122151 0.071583
0.057843 -0.086491 -0.022540
0.022533 0.073676 -0.424401
0.034887 -0.052762 -0.295690
-0.062653 0.069179 -0.204545
-0.010513 -0.074877 -0.220299
-0.057681 0.130312 0.091786
-0.138797 0.050425 0.357602
-0.025290 0.031367 -0.385642
0.069453 -0.037408 -0.370275
0.116374 -0.022094 0.065795
-0.067256 -0.078700 0.206794
-0.111754 -0.045134 0.195233
-0.106310 0.022470 -0.134505
0.072228 -0.078378 -0.158474
-0.075369 0.116205 0.064350
0.068207 -0.081572 -0.002725
-0.074483 0.068875 -0.173912
0.058821 0.051918 -0.467679
0.077082 -0.058528 0.377924
-0.007426 0.061779 -0.381730
-0.012984 0.024003 -0.491044
0.038860 -0.084804 0.411790
0.098655 0.005037 -0.355788
0.114612 -0.049789 -0.065074
0.024933 -0.078599 -0.182562
0.085574 -0.057686 0.111817
0.084631 -0.017531 -0.360409
0.062798 -0.071679 0.367446
0.050056 -0.055828 -0.286326
0.022969 -0.091583 0.035739
-0.087459 0.114012 0.130664
-0.069669 0.153378 0.315421
0.046476 -0.087879 -0.066941
-0.014081 -0.093688 0.368908
0.132199 -0.017721 -0.108409
0.112357 -0.048882 -0.004953
-0.001066 -0.093908 0.262915
0.072876 -0.061386 0.333193
-0.018657 0.024439 -0.432034
0.026541 -0.089205 0.244109
-0.104742 0.113179 0.312210
-0.002321 0.085286 -0.290365
0.059636 -0.087245 -0.056076
0.006554 -0.094080 0.260969
-0.054320 0.140861 0.173171
-0.117867 -0.048895 0.350766
-0.114092 0.042695 0.053617
-0.109697 -0.035224 0.103471
-0.108891 0.064867 -0.054235
-0.076258 -0.071067 0.023301
-0.094013 0.057507 -0.136201
-0.004858 -0.071248 -0.239036
0.052470 0.052037 -0.464287
-0.052426 -0.053088 -0.219436
-0.007492 0.098860 -0.239150
0.119664 -0.014541 0.047878
0.024009 -0.090447 0.316416
0.047312 -0.046600 -0.357691
-0.106759 -0.039316 -0.053768
-0.109979 -0.030991 0.094794
0.026532 -0.086099 0.202927
-0.018737 -0.103343 0.425201
0.039446 -0.085227 0.403897
-0.020696 0.094218 -0.248580
-0.002114 -0.044729 -0.350648
-0.049211 -0.060118 -0.196471
0.072004 -0.076991 0.011695
0.004721 -0.097018 -0.108427
0.072448 -0.080744 -0.127339
0.011359 -0.075172 -0.236468
0.050981 -0.080871 0.425646
-0.126663 -0.012404 0.304718
-0.052928 0.142944 0.192770
0.064987 -0.080550 0.065425
-0.109763 -0.020773 -0.045267
0.117836 -0.016161 0.157738
0.066859 -0.034131 -0.350485
-0.120836 -0.044213 0.324489
-0.086935 0.082181 -0.088206
-0.087292 0.067849 -0.137192
0.007492 0.087567 -0.287348
0.095233 -0.043755 0.234978
0.022339 0.067065 -0.466987
-0.128297 0.034371 0.258216
-0.087071 -0.002111 -0.196075
-0.008558 0.031477 -0.474682
-0.064045 0.077728 -0.190450
-0.022639 -0.097978 0.295248
0.104116 -0.021130 -0.264590
0.029175 -0.072388 -0.206610
-0.040213 0.097733 -0.216943
0.117730 -0.024768 0.071191
-0.086534 0.141495 0.369882
0.051545 -0.081290 0.417727
-0.082460 0.100296 -0.069117
0.084292 -0.017945 -0.341906
0.087807 -0.039910 -0.268109
-0.116488 0.011432 0.053348
0.006316 0.063625 -0.399683
0.076051 -0.076000 -0.113346
0.084288 -0.065187 0.067892
0.129517 -0.027441 -0.059308
-0.013821 0.107176 -0.197938
-0.094184 0.132435 0.335294
0.085160 -0.034726 -0.278592
