-0.010628 -0.087557 -0.149049
0.036473 0.059908 0.155993
-0.053272 -0.061716 -0.040079
0.042335 -0.088561 -0.100794
-0.100188 0.141279 -0.129022
-0.018115 0.042647 0.409786
0.034540 0.010653 0.101220
0.012848 0.140372 0.041672
-0.136793 0.075684 -0.093672
-0.075809 0.167878 -0.058480
-0.029395 -0.093596 -0.203827
-0.099355 -0.065839 -0.165671
0.081870 -0.061844 -0.230601
-0.047524 -0.089376 -0.237397
0.033020 -0.083518 -0.138372
-0.083548 -0.073252 -0.195520
-0.137515 0.076464 -0.234389
0.012901 -0.080466 -0.145772
0.047740 0.080987 0.115803
-0.042547 -0.092129 -0.194124
0.029153 0.055754 0.181152
0.002088 -0.014413 0.074437
-0.069176 0.110805 -0.298883
-0.068330 -0.045301 -0.286859
0.033883 0.114179 0.071028
-0.132239 0.001848 -0.146080
-0.030584 -0.083377 -0.108709
-0.103381 0.064087 0.038320
0.009861 0.131819 0.046120
-0.090656 0.146270 -0.016740
-0.048013 -0.082016 -0.255913
0.018895 0.060361 0.189780
0.019309 0.021593 0.408332
0.134256 0.001985 0.029036
0.001889 -0.070503 0.002032
-0.099430 0.121644 0.040201
0.040292 -0.095080 -0.289471
0.031536 0.059612 0.198813
0.087573 -0.049415 -0.066800
0.050818 -0.059889 -0.007261
-0.104918 -0.044134 -0.268162
-0.085261 0.165389 -0.270875
-0.069343 0.179589 -0.188759
-0.113802 0.059375 -0.002438
-0.051893 0.135844 0.069332
-0.075972 -0.072697 -0.113426
-0.075977 -0.069142 -0.079965
0.033187 0.054384 0.212956
0.020868 0.054561 0.177351
0.133181 0.033463 0.051978
0.142131 0.022831 0.014426
-0.049065 -0.093741 -0.232971
0.023643 0.040660 0.237387
0.026528 -0.086760 -0.309991
-0.118140 -0.000869 -0.161134
0.015068 0.057591 0.215471
0.026330 0.079384 0.132139
0.034817 0.049214 0.227174
0.004092 0.148476 0.023993
-0.102835 -0.038897 -0.279662
-0.058169 0.176326 -0.194190
-0.069330 0.175352 -0.062995
-0.028550 0.050570 0.126083
0.156388 0.036335 -0.118552
0.140493 -0.006824 -0.124111
0.021524 0.050324 0.232648
-0.082359 0.166834 -0.290797
-0.132239 0.002980 -0.140984
0.045132 -0.091512 -0.282226
-0.017230 -0.086377 -0.141530
-0.057192 -0.085038 -0.188830
-0.103786 -0.030075 -0.061401
0.062864 -0.085386 -0.202739
-0.047722 -0.087548 -0.196242
-0.066018 -0.031639 -0.019188
-0.089481 0.153696 -0.075865
0.006607 -0.088319 -0.075495
-0.128962 -0.005053 -0.287608
0.011143 -0.101995 -0.296906
0.103509 -0.044059 -0.217762
0.025189 0.035983 0.338540
-0.013103 -0.105889 -0.308842
-0.111705 0.129000 -0.107224
0.127284 -0.018791 -0.041528
-0.136938 0.049209 -0.143446
-0.024934 -0.087755 -0.119147
0.042393 -0.071715 -0.024187
-0.082178 0.170111 -0.245717
-0.018877 -0.077991 -0.038524
0.019274 0.054737 0.259352
-0.090375 -0.064214 -0.207055
-0.087269 -0.067420 -0.138280
-0.131961 0.005077 -0.246638
-0.055373 -0.068949 -0.051213
0.068762 -0.068570 -0.073385
0.087212 -0.058664 -0.210997
-0.015940 -0.104761 -0.308780
-0.005043 -0.101466 -0.285251
-0.025022 -0.093816 -0.315061
-0.054170 -0.080981 -0.260635
-0.137150 0.032001 -0.262370
-0.108842 -0.040245 -0.093236
0.040512 0.080547 0.119507
-0.069779 0.168402 -0.233808
0.032047 0.041656 0.288523
-0.090357 0.155528 -0.123027
0.010051 0.055340 0.276825
0.077174 0.076318 0.096798
0.019983 -0.096578 -0.268382
-0.110322 -0.045032 -0.161659
-0.094554 0.161121 -0.216533
-0.133001 0.006583 -0.168278
0.023938 -0.094129 -0.296417
0.015543 -0.100299 -0.232949
0.032923 -0.100458 -0.196581
-0.107045 0.136474 -0.063863
0.023683 -0.095547 -0.270673
0.015314 0.051654 0.291650
0.038248 -0.093939 -0.234821
-0.040151 -0.080074 -0.291056
0.008263 0.033428 0.314055
-0.096801 -0.061602 -0.194767
-0.138361 0.040704 -0.208601
0.026559 -0.097388 -0.251817
-0.036936 -0.097463 -0.240304
0.157159 0.039788 -0.078600
0.063397 -0.084320 -0.197779
-0.093370 -0.058986 -0.094658
-0.065983 -0.070287 -0.302275
0.016032 0.047668 0.321424
-0.098126 0.042625 0.037008
0.019221 -0.063998 0.008132
0.011161 0.048857 0.324349
-0.054232 -0.072935 -0.286013
-0.030369 -0.097331 -0.230667
-0.036680 0.125300 0.091953
-0.079002 0.170895 -0.174942
0.023621 0.040409 0.231516
0.010104 -0.104655 -0.306375
-0.048303 -0.089887 -0.206157
0.052003 -0.094111 -0.227593
0.096704 -0.047376 -0.163500
-0.023696 -0.099233 -0.310771
0.013275 0.054213 0.336914
0.093955 -0.019002 0.019874
0.023317 0.050354 0.343103
0.084367 -0.055026 -0.237547
0.001907 0.035736 0.353444
0.004092 0.027980 0.383958
0.008593 -0.082831 -0.074984
0.091022 -0.046931 -0.112976
0.013398 0.053473 0.342944
-0.122703 -0.013435 -0.264242
-0.098598 -0.037074 -0.288951
-0.008206 0.109792 0.113764
0.003519 0.134717 0.041500
-0.029452 0.007896 0.078691
-0.100298 0.143068 -0.154638
-0.071162 -0.073128 -0.267339
0.076743 -0.050745 -0.024993
0.004973 0.038749 0.362958
0.097787 -0.047953 -0.120693
-0.134551 0.019492 -0.142495
0.020930 0.006094 0.098115
0.010712 0.052209 0.238110
-0.093004 -0.066011 -0.155686
-0.059940 -0.060884 -0.050530
0.036940 -0.082453 -0.140773
-0.037513 0.046073 0.108989
-0.134749 0.031199 -0.250355
-0.005497 0.010102 0.098317
-0.132803 0.101472 -0.050825
-0.040534 -0.084346 -0.159042
0.012262 -0.100158 -0.225748
0.010249 0.034793 0.384403
-0.024709 -0.026151 0.045984
0.016838 0.054349 0.370639
-0.128376 0.026672 -0.096240
0.037830 0.010926 0.416952
-0.055619 -0.080603 -0.193331
-0.120611 0.121178 -0.055177
-0.029677 -0.078991 -0.314215
-0.131455 0.008666 -0.127996
-0.124606 -0.005855 -0.251923
0.026101 0.052407 0.386262
-0.111520 0.129757 -0.112043
-0.115859 0.104938 -0.295505
-0.115863 -0.027098 -0.279125
-0.078117 0.172498 -0.248721
-0.123346 -0.014303 -0.257133
-0.098426 0.145895 -0.227412
0.042529 -0.090068 -0.270334
-0.111115 0.028883 -0.007019
-0.057645 -0.077101 -0.067567
-0.120356 -0.015518 -0.257173
-0.116484 -0.003362 -0.141253
-0.111243 0.142689 -0.178382
0.053250 -0.044253 0.020729
-0.003620 0.034653 0.402457
0.006038 0.049540 0.211705
-0.102804 -0.007965 -0.020285
-0.076153 0.165367 -0.038784
-0.110005 0.135888 -0.246977
-0.038310 -0.091944 -0.244665
-0.136031 0.032631 -0.171846
-0.103672 -0.050172 -0.116901
0.034341 0.053680 0.399043
0.015006 -0.093534 -0.171621
0.059491 0.033948 0.423457
-0.066313 0.164993 -0.262221
0.143329 0.016026 -0.194137
-0.084054 -0.067579 -0.133237
0.051695 0.011904 0.417022
-0.070550 0.158562 0.000596
0.033359 0.056173 0.402285
0.037385 -0.084082 -0.054102
-0.080531 -0.061893 -0.273765
-0.092189 0.152207 -0.034503
-0.069661 0.175445 -0.154079
0.080416 -0.062157 -0.278583
-0.050563 -0.026622 0.013329
0.140294 0.061176 -0.008578
-0.000551 0.037802 0.412133
0.134670 -0.016941 -0.070311
-0.098897 -0.060888 -0.219013
-0.113573 0.044721 -0.013987
-0.062556 0.070487 0.127263
-0.020859 -0.100361 -0.310832
-0.015204 -0.102352 -0.280680
0.032381 0.058665 0.405522
-0.074202 -0.076507 -0.098530
0.017111 -0.078740 -0.130563
0.011315 -0.102061 -0.266414
0.088829 -0.052820 -0.235058
0.048576 0.050491 0.159927
-0.084719 -0.063742 -0.264476
-0.133798 0.004266 -0.165935
-0.003158 0.114430 0.107091
0.135696 0.006486 0.018421
-0.063279 0.169754 -0.103093
-0.133296 0.023985 -0.250628
-0.069929 -0.070116 -0.276557
-0.137674 0.047060 -0.244968
-0.096426 0.154228 -0.183976
-0.043326 -0.095820 -0.221074
-0.089577 -0.057849 -0.261767
0.021392 -0.087672 -0.057177
-0.012579 0.046505 0.412261
-0.078773 -0.037554 -0.295906
-0.057156 -0.053374 -0.308291
-0.081495 -0.068984 -0.120750
0.044982 -0.094063 -0.237217
-0.023639 0.119654 0.101361
0.016539 0.052336 0.416921
-0.132904 0.101622 -0.177691
0.023498 0.058000 0.414459
0.067969 -0.068640 -0.262119
-0.015649 -0.104003 -0.315660
0.024612 0.053332 0.178742
-0.050048 -0.011929 0.030665
-0.059931 -0.082695 -0.183778
-0.033302 -0.096168 -0.230601
-0.010571 0.053393 0.412794
-0.080892 0.164790 -0.066849
-0.032945 0.062762 0.135253
-0.078161 0.170454 -0.228659
-0.102042 -0.019910 -0.034423
-0.087292 0.159611 -0.259036
-0.083997 -0.047869 -0.065263
0.014253 -0.001750 0.089227
0.004391 -0.102202 -0.324711
0.108279 0.004764 -0.304036
0.028400 0.044056 0.305815
-0.005413 -0.102502 -0.308595
-0.025581 0.044549 0.420977
0.002295 -0.090301 -0.249038
-0.002660 0.069016 0.407870
-0.136040 0.033829 -0.166799
-0.071154 0.112999 0.098701
-0.066947 -0.083677 -0.186398
-0.046876 -0.084117 -0.181285
-0.036046 -0.090363 -0.137104
-0.132433 0.037502 -0.098191
0.007946 0.056657 0.241312
-0.093022 0.155990 -0.283961
-0.123091 0.107224 -0.257834
-0.114013 0.124049 -0.110959
-0.058636 0.173639 -0.035331
-0.036394 0.106370 -0.295668
0.011848 0.034648 0.320288
0.020467 0.034512 0.323296
-0.116634 -0.023367 -0.117434
-0.108252 -0.050829 -0.169512
0.001383 0.069668 0.414305
0.017715 -0.036550 0.045460
0.005285 -0.091993 -0.047364
-0.104341 -0.050401 -0.104247
-0.117396 0.135329 -0.163015
-0.082085 0.133858 -0.312731
-0.120527 0.094095 0.018218
-0.084200 -0.068645 -0.138342
-0.074074 0.174894 -0.251716
-0.042882 -0.094847 -0.228196
-0.103407 -0.054379 -0.149886
-0.110551 0.131471 -0.105361
-0.085468 0.148529 0.001816
0.016490 0.065849 0.175113
0.026123 -0.100321 -0.194168
0.038230 0.024108 0.392965
-0.048546 -0.084078 -0.101397
-0.036306 0.160967 0.030075
-0.136718 0.073240 -0.207438
-0.024890 -0.089191 -0.166693
-0.020613 -0.013087 0.063426
-0.033588 -0.098066 -0.259318
0.011064 -0.044464 0.036625
-0.035438 0.060110 0.421550
-0.041173 -0.083919 -0.116482
-0.081213 0.039295 0.064152
-0.100505 -0.056537 -0.228355
-0.009558 0.075187 0.417286
-0.034703 -0.070860 -0.032825
-0.064155 0.181765 -0.164905
-0.124927 -0.009973 -0.266466
-0.126073 0.114091 -0.007354
0.007809 0.140562 0.067636
-0.113066 -0.030031 -0.155580
0.122707 -0.031123 -0.132633
0.008716 0.129277 0.044209
-0.124505 -0.001891 -0.176162
-0.029422 0.068236 0.422281
-0.098272 -0.037721 -0.300702
-0.003021 0.005645 0.095234
-0.096576 0.121332 -0.307736
-0.042437 -0.093895 -0.235305
-0.061363 -0.084919 -0.156880
0.036292 -0.086483 -0.069875
0.056051 -0.091979 -0.237076
-0.137590 0.041752 -0.215917
-0.073299 -0.030687 -0.297910
0.118536 -0.003847 -0.302486
-0.122752 0.007803 -0.099975
-0.048607 -0.085734 -0.124313
-0.042335 0.066919 0.424783
-0.059834 0.183064 -0.077494
-0.031373 0.073817 0.422514
-0.009611 -0.105118 -0.292523
0.117885 -0.029943 -0.070883
0.000396 -0.085910 -0.136311
0.003717 0.027826 0.402540
0.157119 0.035503 -0.070751
-0.007479 -0.065698 -0.010926
-0.057231 -0.079409 -0.248681
-0.107640 0.131902 -0.222400
0.018917 0.039163 0.234370
-0.084208 -0.064703 -0.105220
0.139735 -0.004948 -0.162081
0.142307 0.061365 -0.018788
-0.114859 0.033604 -0.046390
-0.125222 -0.001829 -0.163746
-0.035548 -0.092578 -0.220731
-0.105019 0.139593 -0.243568
-0.066322 0.185619 -0.178814
-0.126121 -0.007705 -0.292426
-0.005083 -0.069363 -0.008578
0.053558 -0.053031 0.003961
-0.114264 -0.031339 -0.269876
-0.133296 0.084295 -0.258966
-0.012733 -0.059268 -0.002443
-0.137070 0.040616 -0.123609
-0.039803 -0.014554 0.041368
0.012381 -0.091292 -0.166521
0.022951 -0.074137 -0.008706
0.001484 0.057062 0.151862
-0.074867 -0.085659 -0.169499
-0.054157 0.074931 0.430967
0.003347 -0.087452 -0.123847
-0.071731 0.155043 0.008744
-0.095585 -0.040342 -0.305485
-0.073717 -0.083505 -0.184024
-0.118008 0.003518 -0.079661
0.045458 -0.090385 -0.088144
-0.036319 -0.091389 -0.142200
-0.017433 -0.100004 -0.324623
0.022335 -0.093111 -0.144221
0.003466 -0.096538 -0.213468
-0.077461 0.169133 -0.272272
-0.072708 0.166398 -0.133893
-0.033835 -0.090565 -0.296351
0.003092 -0.097608 -0.206284
-0.077104 0.168640 -0.101080
0.004352 -0.102726 -0.287634
-0.034187 -0.084091 -0.118931
0.008131 0.065281 0.166533
0.146628 0.004790 -0.141420
0.040679 0.053054 0.178663
-0.101359 -0.060104 -0.157792
0.036226 0.046135 0.170814
-0.066252 -0.079506 -0.281838
0.138044 -0.003653 -0.022298
0.024467 -0.095926 -0.179131
0.051730 -0.095208 -0.220423
0.064212 -0.079722 -0.238741
0.033879 -0.097119 -0.218185
0.025132 0.103472 0.099749
-0.040807 -0.089865 -0.251668
0.019767 0.045998 0.181707
-0.120686 0.051662 -0.047963
-0.099109 0.136241 -0.298271
-0.041336 -0.086588 -0.156765
-0.113731 -0.030066 -0.143103
0.038975 -0.089574 -0.293840
-0.135436 0.051301 -0.261749
-0.055795 0.168530 -0.000699
0.006567 0.046826 0.192973
-0.062569 0.180774 -0.192054
0.003576 0.051896 0.211331
-0.009509 0.022140 0.107487
-0.042789 0.055160 0.115134
0.010725 0.051671 0.226381
0.107340 -0.038725 -0.053098
-0.067529 -0.077185 -0.210213
-0.005149 -0.092358 -0.244449
-0.030179 -0.095798 -0.201589
-0.126843 0.034534 -0.085449
-0.000211 -0.087698 -0.158906
0.038702 -0.089381 -0.080410
-0.115079 -0.028212 -0.107638
-0.100641 0.141147 -0.230993
-0.111040 0.121614 -0.278121
-0.032258 0.063237 -0.270065
-0.115242 -0.033766 -0.200268
0.023986 -0.051000 0.025384
-0.022511 -0.079810 -0.090465
0.029074 0.011371 0.407619
0.026422 0.036938 0.251838
-0.123461 -0.015677 -0.261978
-0.097814 0.125992 -0.310220
-0.001260 0.026504 0.405557
-0.061561 0.177070 -0.205051
0.107539 -0.040456 -0.246845
0.080169 -0.056123 -0.247219
-0.123214 -0.019046 -0.283498
-0.122087 0.099763 0.007692
0.040957 -0.090085 -0.153828
-0.119550 0.105533 -0.285040
-0.032434 -0.095023 -0.268532
0.112317 -0.015267 -0.301358
-0.007990 0.014573 0.101401
-0.093687 0.151696 -0.072632
-0.014764 -0.101048 -0.275896
-0.114938 0.096755 -0.285110
-0.122893 0.091730 -0.289911
0.027633 -0.094221 -0.261115
-0.085067 0.162817 -0.063594
-0.060662 -0.073371 -0.295434
-0.065688 0.162896 -0.231350
-0.051902 -0.085531 -0.129365
0.095528 -0.051084 -0.153687
-0.090027 -0.044143 -0.310304
-0.124337 0.014868 -0.099521
-0.108402 0.121763 -0.293598
-0.130865 0.002694 -0.275438
-0.115145 -0.030317 -0.117953
-0.054210 -0.085056 -0.171621
0.013455 0.048020 0.240783
-0.089168 -0.048415 -0.282450
0.092061 0.003861 -0.286300
-0.132622 0.014507 -0.248615
0.009826 0.095676 0.129179
-0.025568 -0.090513 -0.146974
-0.085679 0.165438 -0.281640
-0.052184 -0.082113 -0.217679
0.034540 -0.094111 -0.251584
-0.007633 -0.054656 0.022090
0.108279 -0.025697 -0.296747
-0.105006 -0.054128 -0.259305
0.093317 -0.036268 -0.306243
0.001475 -0.092556 -0.075944
0.046568 -0.088782 -0.260772
0.022361 -0.085311 -0.041321
-0.066234 -0.075529 -0.236552
-0.039252 0.140667 0.064210
-0.070947 -0.050252 -0.049720
0.027166 0.018519 0.408116
0.036662 -0.085672 -0.064629
-0.065124 0.073980 0.119036
-0.130851 0.074539 -0.290070
-0.008021 -0.090795 -0.220361
-0.054056 0.176259 -0.107735
0.158040 0.037837 -0.090452
0.153785 0.012247 -0.084898
0.067018 0.073301 0.114306
0.073250 -0.043293 -0.310868
-0.102024 -0.053947 -0.101983
0.115022 -0.028040 -0.175193
0.003955 -0.075692 -0.079556
-0.114868 0.007019 -0.053420
-0.049713 0.131295 0.077423
-0.039512 -0.095062 -0.235367
-0.103037 0.112223 0.054674
0.049418 -0.089218 -0.279746
-0.114890 -0.007586 -0.064915
-0.004109 0.042426 -0.262569
-0.017935 -0.099374 -0.196894
-0.092273 0.157135 -0.277698
0.028422 0.043941 0.299811
-0.087212 0.158593 -0.072169
0.075395 -0.046702 -0.308652
-0.071845 0.168270 -0.277147
0.063688 -0.050291 -0.313325
0.051977 -0.095225 -0.208297
-0.070299 0.170516 -0.264643
0.062948 -0.038893 0.018483
0.036244 -0.100506 -0.203875
-0.082742 -0.056576 -0.076340
-0.128389 0.014683 -0.317443
-0.099250 0.147644 -0.269263
0.006664 0.041982 0.266941
-0.005426 -0.082488 -0.131061
0.070066 0.106145 0.067125
-0.115929 -0.006771 -0.168948
0.013931 -0.104140 -0.259455
-0.121571 -0.006776 -0.191243
0.089361 -0.046574 -0.301768
0.097800 -0.048415 -0.230090
-0.022194 -0.091468 -0.171789
0.036980 0.126692 0.053163
-0.057227 -0.079083 -0.108673
0.054038 -0.049040 -0.310837
-0.113665 0.022510 -0.305437
-0.120250 0.008776 -0.315263
-0.067679 -0.079665 -0.116469
-0.100126 0.151370 -0.052627
0.003013 -0.068358 -0.091778
0.058398 -0.084426 -0.262921
-0.114678 -0.034017 -0.212459
-0.136815 0.034763 -0.203932
-0.136793 0.037273 -0.193961
0.029373 0.044871 0.237634
0.105380 -0.046618 -0.130801
0.107931 -0.036025 -0.287498
-0.066410 -0.019139 0.000425
0.019265 -0.091904 -0.144147
0.092986 -0.046490 -0.297091
0.075756 0.023804 0.104757
-0.067317 0.166275 -0.229408
0.081130 -0.050005 -0.301777
-0.129495 0.092791 -0.257944
0.025973 -0.099396 -0.237631
0.087283 -0.055119 -0.256852
0.054527 -0.084730 -0.279512
0.055835 0.023139 0.417762
-0.059764 -0.073934 -0.209874
0.042560 -0.090830 -0.251368
0.140691 0.026082 0.021680
-0.078117 -0.068178 -0.110519
0.142008 0.006957 -0.194423
-0.067824 0.169243 -0.125718
-0.077734 -0.071195 -0.248298
-0.067811 0.181413 -0.171181
-0.134208 0.048866 -0.290554
-0.082689 0.157924 -0.034260
-0.123078 0.101137 -0.272606
0.079962 0.013943 0.087500
-0.137528 0.057551 -0.205487
0.062561 -0.073807 -0.096949
-0.086631 0.160655 -0.172489
0.013513 0.027711 0.337993
-0.063604 -0.077616 -0.113694
0.156322 0.046069 -0.074574
-0.124425 0.000483 -0.166085
-0.114106 0.024989 -0.039066
-0.009012 -0.082567 -0.123556
-0.041419 0.145243 0.056136
-0.101210 -0.014933 -0.020831
-0.074611 0.170626 -0.292171
-0.097660 -0.064064 -0.112972
-0.063785 -0.078621 -0.118839
-0.055100 -0.079554 -0.200550
-0.105689 -0.056775 -0.189618
0.092722 -0.050833 -0.128462
0.025140 -0.086038 -0.121015
0.023026 -0.098234 -0.237560
-0.083935 0.165266 -0.061748
-0.020556 -0.099612 -0.317708
0.023687 -0.095005 -0.289453
-0.048955 -0.075604 -0.267325
0.025493 0.026253 -0.262419
-0.074545 -0.008013 0.011933
-0.113630 0.125600 -0.120570
-0.132873 0.086642 -0.263401
-0.035654 -0.091116 -0.179285
-0.041507 -0.074582 -0.295404
0.030338 -0.074318 -0.011300
-0.081390 0.171331 -0.239397
-0.002039 -0.102092 -0.322412
0.091379 -0.056369 -0.220674
-0.056949 -0.080286 -0.272412
0.069277 -0.062685 -0.304468
0.046379 -0.086214 -0.323966
-0.012174 -0.093199 -0.234992
0.015305 -0.099661 -0.294421
-0.120118 -0.018835 -0.278737
-0.114084 -0.026631 -0.182602
0.027717 -0.038140 -0.298456
0.031214 -0.019170 -0.286005
-0.007796 -0.078775 -0.102961
-0.097382 0.151194 -0.261190
0.003325 0.135201 0.036431
0.031853 -0.068728 -0.083898
0.108072 -0.028983 -0.031472
-0.047405 -0.084179 -0.156633
-0.107781 -0.045151 -0.144199
-0.124553 0.091487 -0.284674
-0.106900 0.017189 -0.010468
-0.013685 -0.086350 -0.148978
0.100914 -0.045160 -0.282921
-0.092845 -0.049432 -0.280182
-0.028563 -0.102184 -0.245352
-0.025704 -0.087844 -0.057784
-0.013284 0.105167 0.120441
0.120289 0.002571 -0.303235
0.118448 -0.030132 -0.052622
0.040715 -0.098454 -0.189050
0.041336 -0.090772 -0.324165
0.003123 -0.105889 -0.308784
-0.119624 -0.005230 -0.095733
-0.127781 0.108202 -0.215199
0.014711 0.033318 0.393595
-0.122782 -0.000825 -0.141143
-0.058672 0.173040 -0.030380
-0.069291 -0.030339 -0.019114
0.028686 -0.090504 -0.289189
-0.074268 0.135818 0.059748
-0.078963 0.018413 -0.284247
0.036072 -0.088429 -0.293770
0.095365 -0.049014 -0.185953
-0.099646 -0.009850 -0.306490
0.011130 -0.103404 -0.216362
0.117990 -0.024543 -0.234283
-0.115361 0.064876 -0.012815
-0.125170 0.077609 -0.038700
-0.012341 -0.103752 -0.311013
0.037182 0.021254 0.395872
-0.095537 -0.064813 -0.168001
-0.135137 0.033221 -0.288599
-0.118096 0.000285 -0.156069
-0.131820 0.007763 -0.236860
0.096241 -0.045574 -0.079520
-0.084605 -0.065227 -0.190010
-0.125967 -0.001829 -0.151273
0.003845 0.027887 0.396335
-0.096915 0.152361 -0.174594
-0.057839 0.172397 -0.218181
-0.091427 0.155752 -0.155228
-0.080606 -0.018698 -0.012974
-0.014737 -0.090649 -0.217987
-0.110115 0.145098 -0.176563
0.006082 0.043400 0.326907
-0.038957 -0.091041 -0.184223
0.005928 -0.080308 -0.143314
0.027545 -0.083752 -0.319126
-0.049228 -0.085100 -0.246638
-0.077003 -0.003485 0.014950
0.032328 -0.078493 -0.032750
-0.024176 -0.099771 -0.273518
-0.085926 0.158690 -0.291541
0.011192 -0.102722 -0.247488
0.013337 0.031067 0.127695
0.003321 0.052675 0.191652
-0.013504 -0.096128 -0.177012
-0.106103 -0.055462 -0.172322
-0.094916 -0.036052 -0.291224
-0.072726 0.005143 -0.287057
-0.097334 -0.031709 -0.056261
0.076346 -0.067451 -0.223594
-0.100047 -0.061593 -0.120367
0.089432 -0.011462 0.039302
-0.110987 -0.028119 -0.316642
-0.113212 -0.039725 -0.207967
0.016719 -0.090376 -0.065246
-0.006924 0.126119 0.092741
0.102703 -0.040597 -0.055820
0.136172 0.007874 -0.232420
-0.067366 0.171754 -0.140033
-0.073021 0.169314 -0.244524
-0.118871 0.029693 -0.059744
-0.096351 -0.061813 -0.206945
-0.048189 -0.087452 -0.171754
0.097012 -0.036541 -0.045082
-0.060720 -0.084915 -0.181523
-0.100373 0.154427 -0.206016
0.001960 -0.100286 -0.282798
-0.054567 -0.074300 -0.290783
0.051334 -0.090165 -0.163724
-0.026471 -0.080871 -0.088052
-0.066542 0.166226 -0.277513
-0.060631 0.182831 -0.093874
0.041137 -0.091601 -0.317258
0.146769 0.009420 -0.149027
0.031707 -0.088051 -0.103379
0.031161 -0.091711 -0.319544
0.030316 0.027099 0.399369
-0.119757 0.128603 -0.141152
0.015521 -0.089574 -0.321707
-0.115621 0.000831 -0.072072
-0.117206 0.094200 -0.292197
-0.060420 0.132757 0.071028
-0.129865 -0.001142 -0.254125
-0.050607 -0.087923 -0.225333
-0.136181 0.039793 -0.245211
0.044780 -0.091860 -0.293985
-0.080967 -0.064949 -0.100111
-0.062794 0.171150 -0.027059
0.051730 0.082718 0.112350
-0.087582 -0.033753 -0.045888
-0.115414 -0.018447 -0.177131
-0.028682 -0.015210 -0.285494
-0.025872 -0.091552 -0.152044
-0.129134 0.022206 -0.104212
-0.043331 0.002853 -0.277685
-0.044185 0.011313 -0.272633
-0.074686 -0.043768 -0.279746
-0.035680 0.052874 0.120604
-0.063486 0.002875 -0.282397
-0.134670 0.014260 -0.217132
-0.075770 0.075865 -0.275196
-0.085521 -0.028793 -0.307230
0.056130 -0.080316 -0.284005
-0.105548 0.137219 -0.025575
-0.041512 -0.081594 -0.057410
-0.048621 0.167640 0.010775
-0.096911 -0.045640 -0.080718
0.003832 -0.095485 -0.220634
-0.113216 -0.045204 -0.239727
-0.119655 -0.023455 -0.250430
-0.110582 -0.044733 -0.222827
-0.033337 -0.093499 -0.159747
-0.057029 -0.072358 -0.297685
-0.005880 -0.094331 -0.230236
0.018446 -0.100374 -0.282758
0.017996 -0.087174 -0.044153
0.142712 0.030068 0.003283
-0.133697 0.072143 -0.256398
-0.069009 0.171978 -0.102688
-0.062609 -0.078497 -0.284084
0.005541 0.020580 0.408253
0.024022 -0.096987 -0.184130
0.000868 -0.094314 -0.220563
-0.024498 -0.001059 0.072551
-0.107684 -0.041571 -0.263295
0.156023 0.007702 -0.025192
-0.079355 -0.069799 -0.090329
-0.057905 0.166539 -0.232812
-0.112996 -0.028895 -0.150511
-0.008743 -0.035263 0.048080
0.043080 -0.088839 -0.265520
0.051946 0.065748 0.138583
-0.016706 -0.079233 -0.318831
0.051783 0.103710 0.072776
-0.023418 -0.060369 -0.308586
0.030501 -0.089729 -0.156351
-0.101324 -0.034475 -0.284124
0.037856 -0.091702 -0.078049
-0.076972 -0.069001 -0.250518
-0.040327 -0.041452 -0.300689
-0.086278 -0.067319 -0.163139
0.082988 -0.062452 -0.181681
-0.000705 0.032750 -0.257662
-0.067855 -0.080673 -0.121609
-0.110318 0.079137 0.033718
-0.066639 0.104014 0.114988
0.056606 -0.091940 -0.212922
-0.093110 0.035604 0.047442
-0.053655 -0.062258 -0.301755
-0.015363 -0.103259 -0.322517
-0.004131 0.051869 0.140239
0.031496 -0.069587 -0.089100
0.068079 -0.080999 -0.202452
-0.083596 -0.075908 -0.217555
-0.121082 -0.009489 -0.213428
-0.054509 -0.085091 -0.159280
0.044542 -0.097406 -0.191402
0.048184 -0.075727 -0.035000
-0.091405 -0.050481 -0.078494
-0.098056 -0.036290 -0.295945
-0.081385 0.161593 -0.042285
0.031804 0.091073 0.103453
-0.065710 0.172890 -0.031807
-0.086648 -0.059030 -0.261815
-0.136220 0.081216 -0.080467
-0.070251 0.174286 -0.074592
-0.012817 -0.105127 -0.315717
-0.093215 0.152753 -0.168278
-0.103614 -0.012959 -0.033873
0.079799 -0.063381 -0.283371
0.075395 -0.065685 -0.285798
-0.069229 0.162703 -0.237503
-0.040358 -0.081647 -0.118795
