0.044080 -0.126519 -0.322125
0.093836 -0.095639 -0.126859
0.106627 -0.089266 0.302617
-0.044379 0.155171 -0.322654
-0.120752 0.088008 0.097216
-0.104773 -0.056220 0.246575
-0.124148 0.081564 0.072384
-0.107715 -0.030925 -0.138020
0.098430 -0.095291 0.108703
-0.107944 0.026984 -0.329023
0.084746 -0.097635 0.376660
0.082636 -0.125911 -0.423859
-0.008016 -0.117107 0.391868
-0.081764 0.147987 0.010881
-0.065190 0.174449 0.323661
-0.067568 0.163566 0.083809
0.060010 -0.111980 -0.152955
-0.111371 -0.061100 0.418114
-0.096034 0.114831 -0.117451
-0.018437 -0.117089 0.290932
0.107191 -0.092790 0.200883
-0.035672 0.160584 -0.260789
-0.052056 0.167089 0.039893
-0.136366 0.127824 0.412442
-0.010399 -0.111940 -0.155008
-0.132904 0.131127 0.410957
0.125601 -0.066288 0.112491
0.017640 -0.119569 -0.181210
-0.105248 0.103921 -0.054261
0.075373 -0.104114 0.034066
-0.104271 0.095821 -0.151277
-0.059825 0.174771 0.221461
0.120404 -0.063042 0.419643
0.038001 -0.112689 0.424933
0.125628 -0.077026 -0.109554
-0.098858 0.100644 -0.210913
-0.120849 0.132083 0.362200
-0.136132 0.088514 0.322287
0.061217 -0.116173 0.279252
-0.105935 0.122613 0.109425
-0.056214 0.147230 -0.222303
-0.103302 0.146838 0.408042
-0.046247 0.156558 -0.226439
0.086120 -0.125819 -0.436081
-0.115568 -0.010484 0.054824
-0.107790 0.115232 0.033991
0.123086 -0.110918 -0.439627
-0.138075 0.070007 0.399462
-0.012024 -0.112870 -0.210151
0.016235 -0.124436 0.306612
-0.084834 0.165627 0.404958
-0.111045 0.071350 -0.209165
-0.126495 0.115703 0.321380
-0.110384 0.130748 0.182284
0.088080 -0.099511 0.038016
0.029536 -0.116243 0.130835
-0.106909 0.113866 0.006547
0.089146 -0.102810 0.255912
-0.051594 -0.096357 0.167793
-0.128015 0.131022 0.401069
-0.133846 0.047456 0.424677
-0.113159 0.011745 -0.053895
-0.099404 0.113796 -0.083158
-0.094797 -0.069565 0.418436
-0.108569 -0.039417 -0.440930
0.009293 -0.123660 0.381285
0.143866 -0.081699 -0.394803
-0.110089 -0.034753 0.017919
-0.035108 0.158963 -0.322685
-0.052712 -0.097524 0.206006
0.108331 -0.099462 -0.310991
0.017186 -0.116908 -0.135197
0.120853 -0.078189 0.244144
0.010165 -0.116336 0.143295
-0.117286 0.136474 0.325348
0.102024 -0.074397 0.426769
-0.045463 -0.094071 -0.185654
0.110362 -0.083646 0.249856
-0.041851 -0.097921 0.075053
-0.116876 0.062189 -0.031116
0.091555 -0.100775 0.333545
-0.102245 0.086391 -0.367839
-0.010258 -0.113596 0.069816
-0.038605 -0.112011 0.351185
0.030426 -0.141353 -0.453730
0.072959 -0.109773 0.295759
-0.100082 0.147538 0.258802
0.021172 -0.101273 0.427985
-0.018160 -0.111997 -0.053032
0.029902 -0.104840 0.386240
0.012328 -0.113609 0.423307
0.130613 -0.066698 -0.082498
-0.145139 0.105965 0.417749
-0.063974 0.146428 -0.281706
-0.085173 0.155268 0.188375
-0.098377 0.137108 0.376885
0.087498 -0.098907 0.402386
0.057843 -0.126902 -0.360426
0.075386 -0.115098 -0.342452
0.053659 -0.112641 0.146528
-0.131010 0.072266 0.198395
-0.139537 0.067408 0.401030
-0.097889 0.148943 0.252636
0.001374 -0.118252 0.260956
0.048955 -0.116129 0.118375
0.031796 -0.118820 0.040130
-0.075739 -0.089566 0.329819
0.040063 -0.115931 0.231948
0.034848 -0.118335 0.204698
-0.134406 0.089770 0.281546
-0.102416 -0.039989 -0.322279
0.089991 -0.122942 -0.424564
0.101029 -0.091579 0.011004
0.074153 -0.103101 0.371379
0.026211 -0.118045 0.092270
-0.108635 0.140791 0.307435
-0.090555 -0.057620 -0.040581
-0.137740 0.023553 0.303397
-0.095902 0.130731 0.019883
0.080117 -0.097480 -0.062484
-0.023326 -0.105765 0.410398
-0.016851 -0.112222 -0.108770
-0.092427 -0.059307 0.102281
-0.007250 -0.115006 0.089843
-0.004893 -0.113667 0.423673
-0.108671 0.065501 -0.278702
0.115537 -0.084183 0.120864
-0.105015 0.145296 0.287787
-0.064732 0.165033 0.072049
0.121866 -0.076780 0.365962
0.123672 -0.070842 0.170810
0.123817 -0.075727 0.354928
-0.138467 0.072953 0.276116
0.014711 -0.118172 0.145947
-0.121620 -0.013743 -0.314558
-0.074034 0.138148 -0.192049
-0.138541 0.033010 0.307277
-0.082618 -0.079731 0.421466
0.084812 -0.105452 0.189604
-0.061539 -0.083849 -0.283327
0.031659 -0.115887 0.152347
-0.031686 -0.111055 0.310730
-0.107437 0.108616 -0.029830
0.057826 -0.113469 -0.048429
0.064736 -0.114257 0.323335
-0.109644 0.128934 0.183935
-0.052505 0.151022 -0.264396
-0.125747 0.093795 0.183253
-0.149385 0.062731 0.418326
0.028928 -0.135482 -0.394204
-0.044815 -0.097300 0.109606
0.071594 -0.099617 -0.088364
-0.026233 -0.114006 0.339879
0.089106 -0.095556 0.365433
-0.019833 -0.107109 0.408253
-0.114515 0.109193 0.059611
0.083570 -0.104598 0.366983
-0.136181 0.095544 0.339812
-0.126002 0.086946 0.136693
-0.054399 0.155352 -0.118667
0.039442 -0.139080 -0.438962
-0.139656 0.030794 0.337447
-0.129948 0.060806 0.144339
-0.109869 -0.020372 -0.459641
0.115973 -0.044596 0.430945
-0.116154 0.111959 0.137552
-0.096616 0.143904 0.182116
-0.070326 -0.091962 0.419973
0.071479 -0.120956 -0.311837
-0.107939 0.025910 -0.391517
-0.095462 0.134179 0.069156
-0.096761 0.147657 0.230966
-0.094581 0.118768 -0.108550
-0.133309 0.087308 0.295328
-0.139171 0.083220 0.325458
0.110983 -0.084100 -0.081361
0.026814 -0.119666 0.057911
0.095457 -0.098436 0.234472
0.132521 -0.056814 0.039073
0.012654 -0.116591 0.004437
0.035654 -0.120771 0.202795
-0.066586 0.158510 -0.447431
-0.033879 0.161690 -0.301389
0.130301 -0.054467 0.008357
0.065741 -0.109117 -0.020862
-0.056698 -0.100467 0.310228
0.050338 -0.113226 -0.006979
0.093933 -0.064240 0.422920
0.072123 -0.111420 -0.250663
-0.107327 0.062207 -0.373596
-0.108014 0.054847 -0.316245
-0.108970 0.122459 0.125863
-0.131089 0.065197 0.192370
0.083600 -0.102726 0.340649
-0.062807 -0.093402 0.245447
-0.092868 -0.059342 0.124467
-0.089846 0.120548 -0.396349
0.024920 -0.123127 -0.202726
0.082728 -0.103470 0.362522
-0.022797 -0.111702 0.422241
0.089758 -0.099736 0.153003
-0.125187 0.124428 0.372559
-0.132904 0.063493 0.216162
-0.114621 0.128648 0.378360
0.054972 -0.114363 0.078779
-0.045705 -0.100145 0.146630
-0.130094 0.098852 0.287334
-0.073272 -0.086817 0.242554
-0.101403 0.096984 -0.151277
-0.107803 0.035736 -0.341562
0.017358 -0.125995 -0.339668
0.061856 -0.119472 -0.268792
0.092229 -0.108293 -0.294457
-0.080227 0.126296 -0.282635
-0.140898 0.082912 0.376977
0.037398 -0.118904 0.060100
0.071893 -0.109289 0.009868
0.028831 -0.116847 0.185807
-0.081702 0.145287 -0.050332
-0.125989 0.114492 0.310968
-0.102306 0.128859 0.082664
0.130873 -0.068134 0.258176
-0.021877 -0.116371 0.243047
-0.033196 -0.120080 -0.433214
0.050285 -0.120573 0.280304
0.054082 -0.118168 0.263981
-0.105055 0.145684 0.281709
-0.130565 0.085863 0.233987
-0.069674 -0.087024 0.219069
-0.110137 0.107229 -0.012326
0.094695 -0.066623 0.421074
-0.112908 0.066453 -0.442010
-0.146324 0.038476 0.392679
-0.053413 -0.091156 -0.048579
-0.101060 0.102498 -0.403070
-0.027986 -0.109720 -0.345597
0.032809 -0.120159 0.209741
0.104914 -0.087570 0.094913
0.075351 -0.105448 0.071776
0.076730 -0.138644 -0.457676
0.049211 -0.113112 0.021064
0.020732 -0.138997 -0.454183
-0.044326 0.159294 -0.360400
0.076390 -0.109174 -0.234191
0.026832 -0.119212 0.025138
0.006316 -0.118133 -0.209235
0.123562 -0.072230 0.032150
0.022727 -0.117190 0.386204
-0.112110 0.065409 -0.210623
-0.108873 0.057102 -0.283732
-0.129371 0.066690 0.145687
-0.027418 -0.110500 0.221368
0.127112 -0.063848 0.157645
-0.110719 -0.048904 0.424408
-0.004973 -0.118838 -0.282776
-0.083358 0.154726 0.143309
-0.120131 0.125582 0.292641
0.126125 -0.099819 -0.372781
0.130472 -0.065852 0.320451
-0.084195 0.159461 0.260268
-0.142281 0.048192 0.397889
-0.061393 0.176312 0.237035
0.037248 -0.120864 -0.062392
-0.081693 0.159584 0.117005
0.054500 -0.109099 0.396577
0.077562 -0.108632 0.206662
-0.096074 0.144349 0.153153
-0.111564 0.080987 -0.170789
0.120122 -0.076154 0.190639
-0.066331 -0.080880 -0.312704
-0.093057 0.119244 -0.396344
0.012108 -0.123317 -0.253332
-0.080879 0.138945 -0.091188
-0.035302 -0.109720 0.312919
0.021119 -0.119216 -0.105075
0.036460 -0.124352 0.343442
-0.094295 0.143940 0.090698
-0.048268 -0.097569 0.419321
-0.043762 0.157589 -0.151603
-0.085763 0.142539 0.019628
0.101923 -0.106082 -0.324063
-0.110556 -0.070107 0.382809
-0.098201 0.146384 0.202716
0.029611 -0.137482 -0.445370
0.092859 -0.103026 0.177267
-0.129319 0.017237 0.201579
-0.097246 0.116623 -0.090443
-0.067379 0.170882 0.348789
0.128636 -0.071472 -0.167605
-0.137617 0.099957 0.376224
0.072783 -0.114592 -0.258508
0.133798 -0.078929 -0.301151
0.104914 -0.115067 -0.408232
0.088256 -0.105109 0.105911
0.034495 -0.117252 -0.036969
-0.143250 0.063898 0.396837
-0.123346 0.107665 0.403501
-0.132825 0.082110 0.403183
0.050206 -0.130981 -0.371376
0.132181 -0.097820 -0.412236
0.115189 -0.077643 0.097745
-0.100025 0.147058 0.264950
-0.070832 -0.089619 0.272896
0.084050 -0.105686 -0.218128
0.129032 -0.065663 0.117173
0.064261 -0.133324 -0.422097
0.083887 -0.107091 0.210904
0.114775 -0.080092 0.013607
-0.082160 0.136228 -0.118257
-0.062675 0.167257 0.128541
-0.059865 0.172925 0.286228
0.094678 -0.109399 -0.329137
-0.105345 0.122182 0.081162
0.066670 -0.115464 0.272235
0.000220 -0.119899 0.348467
0.022687 -0.119168 -0.089078
0.120910 -0.073009 -0.099684
-0.070612 0.163310 0.088808
-0.067595 0.167437 0.334135
0.093343 -0.100207 0.107302
0.125377 -0.069142 0.088641
0.013319 -0.118490 0.162776
-0.097268 0.103459 -0.160787
0.050691 -0.120062 0.346635
0.012244 -0.123176 0.330933
-0.113996 0.070315 -0.151709
0.048035 -0.121123 0.346895
-0.142166 0.051570 0.343464
-0.094827 0.119121 -0.103146
0.048616 -0.116023 0.372093
-0.110979 0.020774 -0.135113
-0.111736 0.103353 0.001715
-0.097726 0.152691 0.376440
-0.130129 0.069483 0.177813
0.014896 -0.118049 -0.124098
-0.069128 -0.096340 0.372564
0.094475 -0.092953 -0.042646
0.127561 -0.065363 0.090345
0.031470 -0.123828 0.356615
0.002110 -0.116459 0.162662
-0.097999 0.100058 -0.262005
-0.112670 0.122675 0.193625
0.055174 -0.107879 -0.010710
-0.004559 -0.112297 0.410327
0.126804 -0.108100 -0.428092
-0.009994 -0.115882 0.150889
-0.121646 0.015048 0.096309
-0.075959 0.130753 -0.250219
-0.120576 0.094826 0.091949
0.118321 -0.073820 0.055039
-0.010170 -0.114984 0.383024
0.132437 -0.053449 0.063368
0.053804 -0.114552 -0.146895
-0.007448 -0.114314 0.029745
-0.094246 0.124256 -0.078181
-0.093171 0.120292 -0.414473
-0.098849 0.129163 0.048970
0.126557 -0.069653 0.170550
0.130459 -0.070895 -0.211975
0.119215 -0.075524 0.378774
-0.008272 -0.118793 -0.314620
-0.063816 -0.092732 0.240744
-0.117299 0.108114 0.111403
-0.126962 0.098473 0.415296
0.093841 -0.086333 0.391846
-0.109005 0.097557 -0.050482
0.018410 -0.117534 0.150545
0.071043 -0.109782 0.406676
0.052805 -0.120952 -0.288542
-0.033615 -0.112821 0.337817
0.136859 -0.055555 -0.209680
-0.128715 0.028724 0.164014
-0.070321 -0.091266 0.293667
0.132331 -0.094437 -0.376987
-0.088542 0.128256 -0.119812
0.078945 -0.103219 0.038875
0.056628 -0.117794 0.290866
0.048709 -0.120529 -0.237177
-0.078694 0.149340 -0.006482
-0.108662 0.141103 0.301419
-0.003277 -0.117838 0.251887
-0.104711 0.097275 -0.169824
-0.039191 -0.103783 0.417449
-0.123227 0.063431 0.029247
-0.085741 0.144160 -0.004663
-0.020679 -0.111901 -0.074103
-0.140449 0.051218 0.292460
0.043432 -0.112843 -0.125476
0.085640 -0.099683 0.143507
-0.120527 0.094694 0.103581
-0.098259 0.153590 0.289201
-0.010518 -0.118626 0.270522
0.004140 -0.114715 0.096939
0.124932 -0.068618 0.083637
-0.025268 -0.107452 -0.273434
-0.107318 0.007244 -0.307652
-0.079685 0.132550 -0.149159
-0.163268 0.045139 0.411750
-0.117801 0.114866 0.209613
0.119589 -0.065037 0.396577
0.049497 -0.118194 0.282158
-0.076686 -0.089861 0.407125
-0.130318 -0.009555 0.424378
-0.093220 0.148652 0.185243
-0.057980 -0.087632 0.071142
0.102936 -0.090944 -0.071936
-0.119576 0.099552 0.100092
-0.048392 -0.097181 0.420101
0.079178 -0.104677 0.351982
0.117841 -0.092658 -0.315453
-0.112410 0.137954 0.296940
0.106226 -0.090231 -0.210447
-0.108538 0.055930 -0.369081
0.015107 -0.119348 0.233216
0.121404 -0.070926 0.066857
0.014261 -0.127263 -0.289779
-0.142981 0.067170 0.342548
-0.092224 0.117178 -0.198695
0.022921 -0.119393 0.153197
0.086384 -0.103933 0.256172
-0.048405 0.155462 -0.243537
0.024431 -0.121533 0.410279
-0.130208 0.047963 0.177315
0.048770 -0.113354 -0.155307
-0.088661 0.127194 -0.406919
-0.069735 0.163011 0.072045
-0.128301 0.086303 0.188291
-0.131913 0.103780 0.323221
0.144985 -0.088258 -0.432606
-0.120977 -0.020139 -0.109572
0.120408 -0.073639 0.263845
0.104579 -0.092680 0.163318
-0.092097 -0.057136 0.059506
-0.071541 -0.075683 -0.136536
-0.071096 0.141649 -0.326292
0.105653 -0.092671 0.355836
-0.129772 0.098182 0.299472
-0.100025 0.096491 -0.265621
0.013196 -0.116116 0.109276
-0.058698 0.158884 0.003895
0.097668 -0.093468 -0.176418
0.014345 -0.120476 -0.064876
-0.116559 0.106700 0.078189
-0.132684 -0.049877 0.393133
-0.097554 0.132400 0.064126
-0.046026 0.167719 -0.073856
-0.064670 0.172485 0.331118
-0.099752 -0.054753 -0.459746
0.065437 -0.110460 0.055524
-0.002202 -0.113728 0.221135
0.042115 -0.119177 0.207019
-0.139427 0.085502 0.375418
0.002594 -0.106087 0.389790
-0.052726 0.150934 -0.258640
0.132384 -0.052168 -0.007415
-0.144426 0.079419 0.384350
0.028356 -0.119939 0.200474
0.098069 -0.095507 0.196875
0.041772 -0.131518 -0.374190
-0.106380 0.123508 0.114350
-0.115172 0.110268 0.093116
-0.076840 0.163143 0.357602
-0.042670 -0.106320 -0.387646
-0.072096 0.153299 -0.445101
0.085935 -0.111275 -0.349261
-0.093493 -0.061095 -0.192358
-0.132785 0.043915 0.415740
-0.129323 0.037467 0.156998
-0.078280 0.148807 -0.011692
0.103275 -0.087729 0.012735
0.138489 -0.072855 -0.337426
0.146421 -0.058867 -0.320046
0.073858 -0.105924 0.094045
0.076285 -0.108910 0.190405
-0.119651 0.061564 -0.008468
0.115039 -0.079136 0.085791
0.053267 -0.117331 0.259317
0.021815 -0.120806 0.312496
-0.130829 0.086413 0.227715
0.096118 -0.106140 -0.283419
-0.101954 0.139504 0.379642
-0.065617 0.168036 0.340050
-0.118105 0.127216 0.280494
0.077324 -0.107835 0.317504
0.110459 -0.090750 0.212066
0.119206 -0.077185 0.223359
0.080980 -0.106571 0.217810
0.021604 -0.135874 -0.430391
-0.115339 0.041559 -0.072103
-0.062781 0.159514 0.019390
0.087723 -0.101096 0.246540
-0.128830 0.121116 0.408544
0.117911 -0.075181 -0.028380
0.146624 -0.057510 -0.297179
-0.099201 0.124741 0.006247
-0.093687 0.122583 -0.070941
0.016820 -0.120630 -0.115478
-0.099981 0.102058 -0.166305
-0.129341 0.066928 0.157024
0.109133 -0.089623 0.246359
0.129473 -0.064086 0.366072
-0.111322 0.081621 -0.447594
-0.101632 0.104635 -0.117020
-0.021044 -0.116600 0.297710
-0.112723 0.132990 0.283440
0.002484 -0.133610 -0.394424
-0.083830 0.128991 -0.187993
0.067300 -0.115917 0.310290
0.051065 -0.132403 -0.422229
-0.097444 -0.043487 -0.133483
-0.129596 0.110730 0.318526
0.096470 -0.064275 0.416467
0.071057 -0.111817 0.300613
-0.105182 0.147961 0.360504
-0.064547 0.160628 0.046755
-0.116823 0.113796 0.124392
0.103663 -0.092032 -0.006781
-0.111534 0.080608 -0.101384
0.097955 -0.093367 -0.170939
0.108794 -0.111777 -0.390931
0.103090 -0.088940 -0.120279
-0.071968 0.166755 0.379351
0.092682 -0.134962 -0.455505
-0.114088 0.101644 -0.003456
0.076910 -0.105201 -0.149084
-0.125289 0.106432 0.242629
0.028897 -0.118402 -0.140420
0.005312 -0.120295 -0.078023
-0.129583 0.045113 0.145189
-0.124020 0.049403 0.011163
-0.104636 0.116549 -0.017863
-0.012680 -0.112971 -0.143843
0.008611 -0.115327 0.133496
-0.111326 -0.058043 0.352458
0.108182 -0.106576 -0.365231
0.087939 -0.102563 0.355721
0.007734 -0.124251 -0.301966
-0.122333 -0.010229 0.173409
0.119325 -0.074287 0.004767
-0.051594 -0.106118 0.348749
0.109882 -0.092261 -0.229641
-0.026647 -0.108945 0.376435
-0.108750 -0.029740 -0.269140
-0.117325 0.063431 -0.020708
0.081196 -0.106514 0.096516
-0.080923 0.148723 -0.023976
-0.137277 0.041246 0.260942
-0.076708 0.161500 0.249522
-0.119457 0.112629 0.176289
-0.099241 0.101076 -0.194097
-0.117849 0.102485 0.098348
-0.113110 0.118601 0.127567
-0.080504 0.146278 -0.004663
0.045106 -0.124845 0.334474
-0.110137 -0.063086 0.425866
0.015195 -0.118014 -0.047024
-0.087476 0.157536 0.226187
-0.131512 0.088426 0.243201
-0.094008 0.153682 0.319261
-0.098197 0.132510 0.092627
0.117321 -0.082395 -0.165200
-0.092581 0.149075 0.156324
-0.116207 0.043704 -0.074054
-0.120761 0.121548 0.243769
0.012147 -0.118741 0.025248
-0.064459 0.173639 0.364834
0.102843 -0.092939 0.031498
-0.107063 0.119940 0.059338
-0.101844 0.104987 -0.111598
0.122205 -0.104673 -0.407633
-0.084922 0.160210 0.270971
-0.076650 0.166235 0.320702
-0.118995 0.111554 0.171519
0.106098 -0.088143 0.055528
-0.125416 -0.054401 0.382007
0.120699 -0.076656 0.250724
-0.068855 0.153660 -0.432844
0.023066 -0.124268 0.337320
-0.114987 -0.011669 0.061690
0.018274 -0.114794 0.383883
-0.125222 0.130180 0.396850
0.078425 -0.102876 0.033779
0.142902 -0.076634 -0.369068
0.151349 -0.081602 -0.425008
-0.074739 0.164623 0.293773
-0.088547 0.156955 0.341464
0.095955 -0.099388 0.277754
0.019600 -0.121383 0.235762
0.070427 -0.110249 0.230226
-0.109336 0.083938 -0.183905
-0.120659 0.095024 0.080250
-0.007673 -0.122661 0.399105
-0.035773 0.157668 -0.367945
-0.007725 -0.117521 0.270240
0.019388 -0.101770 0.414115
-0.015085 -0.112055 -0.092764
0.060433 -0.114755 0.341099
-0.018600 -0.118688 0.284427
-0.029770 -0.105157 0.115512
0.010698 -0.102515 0.416767
0.096052 -0.094358 -0.209486
-0.106830 0.124410 0.119256
0.049206 -0.119952 -0.049583
-0.088613 -0.068301 0.150087
-0.062221 0.169023 0.213674
-0.092638 0.147613 0.180478
-0.076589 0.133497 -0.154673
0.002392 -0.128589 -0.374547
0.140303 -0.058224 -0.251267
-0.071202 -0.088531 0.417661
-0.054012 0.159650 -0.098869
-0.118131 0.057538 -0.022122
-0.089639 0.152097 0.108831
-0.083490 -0.084879 0.422448
-0.125703 0.071333 0.114429
-0.132424 0.076530 0.223412
0.069105 -0.105774 0.079330
-0.123593 -0.042346 0.416886
-0.075087 0.161350 0.146506
0.043696 -0.121907 -0.208711
-0.003651 -0.113323 0.034541
0.126297 -0.067896 0.177315
0.077989 -0.094472 -0.076265
-0.129134 0.115906 0.337663
-0.098602 0.142706 0.170911
-0.082883 0.125498 -0.305882
-0.042631 -0.098128 -0.079124
-0.097734 0.116650 -0.061828
-0.010557 -0.114746 -0.063109
-0.057584 0.146261 -0.262282
0.039530 -0.098031 0.414802
-0.077593 0.158109 0.102180
-0.121201 -0.040923 0.257093
-0.120523 -0.015708 0.160979
0.072272 -0.111284 -0.041193
0.092414 -0.099304 0.350740
-0.083191 0.158479 0.382271
-0.102835 0.146578 0.281714
-0.096021 0.126939 -0.046285
-0.108349 0.046483 -0.327098
0.030430 -0.114948 0.406940
-0.043881 0.167799 -0.055965
0.094387 -0.117049 -0.383686
-0.019036 -0.115248 0.242761
0.135331 -0.058660 -0.078904
-0.022458 -0.110804 -0.298711
-0.024083 -0.116512 0.392564
-0.049132 0.153132 -0.207399
-0.038407 0.159470 -0.266541
0.132036 -0.052969 0.058316
-0.112802 0.128705 0.223421
-0.140259 0.086303 0.334228
0.023145 -0.122815 0.261092
0.068625 -0.122550 -0.361457
-0.069802 0.138954 -0.225888
-0.082715 0.148485 0.033224
-0.115088 0.065255 -0.079005
-0.108684 0.065550 -0.301781
-0.031139 -0.103946 0.023112
-0.091828 0.157074 0.363367
-0.020080 -0.109980 0.031665
-0.002722 -0.113367 0.133381
0.095360 -0.099176 0.311175
0.047678 -0.118701 0.293509
-0.051801 -0.099114 0.182583
-0.108010 0.027050 -0.334850
-0.075263 -0.080246 0.153915
-0.071709 0.161289 0.067011
-0.103147 0.134853 0.146815
0.095056 -0.098225 0.350493
-0.094004 0.151493 0.263391
-0.105275 0.083418 -0.268589
0.097184 -0.091253 0.409438
-0.050426 -0.102321 0.411455
-0.115669 0.097843 0.010528
0.052426 -0.113477 0.129888
-0.090687 0.156096 0.341455
-0.129878 0.087409 0.417251
-0.124302 0.089840 0.134971
0.089793 -0.099912 -0.155774
-0.102156 0.085986 -0.355978
0.060684 -0.110623 0.040597
0.058006 -0.117459 0.240986
-0.138735 -0.008203 0.414243
-0.033187 0.162368 -0.318976
0.058804 -0.112544 0.051036
-0.147641 0.013613 0.382883
-0.008073 -0.113173 0.118913
-0.141928 0.091007 0.347300
-0.149566 0.070302 0.417872
0.125143 -0.076066 -0.196925
0.132476 -0.065139 0.248548
-0.059821 0.162346 -0.004918
0.131234 -0.055132 -0.058560
0.028809 -0.115741 0.125916
0.060645 -0.113323 0.182134
0.123853 -0.076951 0.348595
0.091780 -0.095344 0.011867
-0.061592 0.148582 -0.190508
-0.067652 0.165129 0.249548
-0.105517 0.075200 -0.256490
-0.061962 -0.095802 0.419929
-0.096999 -0.071265 0.294464
-0.102954 0.119389 -0.002275
0.116951 -0.044988 0.421775
-0.077743 0.156162 0.051833
0.095325 -0.094406 0.016717
-0.006743 -0.114874 -0.097640
-0.038319 0.172555 -0.443710
-0.147143 0.019827 0.389706
0.104112 -0.090323 0.010718
0.053505 -0.124823 -0.351974
-0.118594 0.110973 0.137552
-0.127350 0.068439 0.127686
-0.003475 -0.129716 -0.395212
-0.020445 -0.110227 0.086747
0.026396 -0.124458 -0.325389
-0.086120 0.139958 -0.036049
-0.128420 0.107599 0.258000
-0.071308 0.168891 0.233943
-0.112313 0.057349 -0.204395
-0.108327 0.027447 -0.358290
-0.007853 -0.122502 -0.366821
-0.088996 -0.079361 0.424021
0.074682 -0.107567 0.324150
-0.097034 0.147067 0.144969
-0.051334 -0.093847 -0.304635
-0.115379 0.042233 -0.043853
-0.094687 0.145164 0.193264
-0.084089 -0.076247 0.421277
-0.070947 0.142147 -0.136615
0.128253 -0.067583 0.375229
-0.053175 0.173256 0.115341
-0.055703 -0.088372 -0.056939
-0.122249 0.021175 0.016483
0.023233 -0.122898 0.343675
-0.123782 0.127370 0.347674
0.026951 -0.120828 0.382276
0.122320 -0.069944 0.210472
0.067859 -0.114125 0.184503
-0.107195 0.101736 -0.093478
-0.071136 0.139328 -0.192054
-0.065379 0.171018 0.257185
0.101099 -0.117829 -0.419697
0.078993 -0.106906 0.152166
0.026757 -0.118635 0.190890
-0.123989 0.115980 0.298922
-0.025167 -0.105994 0.063690
-0.097571 0.151172 0.302820
0.073268 -0.110297 -0.228289
0.011874 -0.121141 -0.020329
-0.022767 -0.109619 0.099013
-0.141774 0.060471 0.405734
0.051246 -0.131698 -0.416314
-0.011742 -0.112962 0.059748
0.103306 -0.093309 0.036598
0.124377 -0.092389 -0.350710
0.082424 -0.127307 -0.435724
-0.057821 0.169212 0.128545
-0.025986 -0.102272 -0.187090
0.130459 -0.071380 0.338857
-0.143853 0.045117 0.421242
0.043397 -0.123105 -0.314114
0.127240 -0.072137 -0.206113
-0.088393 -0.064218 -0.437033
-0.081077 0.134034 -0.375318
-0.125932 0.126014 0.394119
-0.036350 -0.100246 -0.005632
-0.131622 -0.034907 0.414305
-0.067410 0.159871 0.178874
0.094841 -0.108945 -0.323389
-0.079491 0.164134 0.350233
0.078196 -0.104514 -0.182170
-0.110556 0.107211 0.039382
-0.109041 0.136919 0.275781
-0.131671 -0.027683 0.423937
-0.116744 -0.061100 0.416419
-0.002141 -0.118675 0.383196
-0.031871 -0.103744 0.017998
0.030593 -0.119141 0.282863
-0.072867 0.166852 0.229283
-0.126654 0.121843 0.391393
-0.141078 0.096508 0.389340
0.112044 -0.079691 -0.100882
-0.088688 0.127568 -0.412980
0.118277 -0.075436 -0.023170
-0.107777 -0.052370 0.239176
-0.057328 0.162341 -0.055948
0.048938 -0.113574 0.384614
0.092660 -0.095732 -0.209165
-0.068806 -0.084056 -0.418618
-0.059297 0.173855 0.360535
-0.094004 0.112201 -0.172339
-0.132635 0.112153 0.351000
0.014750 -0.125823 -0.322077
0.113198 -0.084950 0.077110
0.121043 -0.086509 -0.285005
-0.122377 0.084564 0.070600
-0.094070 0.156109 0.369168
-0.062019 0.164848 0.078806
