0.067322 -0.085108 0.238718
-0.099967 0.131237 0.375977
0.183022 -0.083289 0.187194
-0.076016 -0.058752 -0.027182
-0.079518 0.023324 0.148951
-0.069735 0.082168 -0.273126
-0.077544 -0.027485 0.053824
-0.080125 -0.022865 0.110478
-0.089661 0.091928 0.308026
-0.082288 0.082106 0.044905
-0.078690 -0.011638 -0.023972
0.255827 -0.095173 0.314192
-0.092141 0.194604 -0.169750
-0.087010 0.119196 0.248099
-0.093405 0.162910 0.303216
0.157516 -0.071428 -0.211913
0.249670 -0.095824 0.311646
-0.091110 0.165231 -0.268290
0.174948 -0.076040 0.093865
-0.091348 0.192336 0.264536
0.263134 -0.081845 0.201289
-0.077941 -0.031220 0.417427
-0.082834 0.003412 -0.125639
-0.102632 0.077649 0.417375
0.262112 -0.089632 0.248280
0.048114 -0.087513 0.231252
0.122919 -0.107179 0.396414
0.180458 -0.072129 -0.236111
-0.089895 0.174727 -0.102080
0.256237 -0.100128 0.401950
-0.082636 0.027826 -0.063664
-0.094964 0.241846 0.173893
0.123654 -0.080096 0.181266
0.089480 -0.074991 0.059475
0.100822 -0.098577 0.373854
0.221900 -0.073287 0.028353
0.229938 -0.091217 0.277450
-0.094770 0.241423 -0.064078
-0.075483 -0.075494 -0.013723
-0.083098 0.051733 -0.097812
-0.085838 0.172291 0.111249
0.154322 -0.068270 -0.293466
0.095647 -0.088606 0.280612
0.032355 -0.103488 0.387737
0.000661 -0.074520 0.007353
0.266310 -0.087632 0.279723
-0.080804 -0.044918 -0.238327
-0.092304 -0.078925 0.382350
-0.023242 -0.095565 0.336839
-0.083468 0.127154 0.045477
-0.083944 0.033336 -0.180712
-0.093132 0.087946 -0.269770
-0.026259 -0.078599 0.037144
-0.088494 0.121697 -0.114870
-0.072215 -0.083214 0.205693
-0.093334 0.165266 -0.221568
0.065459 -0.071732 -0.025311
0.047515 -0.075890 0.043826
0.191800 -0.076366 0.061329
0.065375 -0.098185 0.328097
0.162656 -0.098101 0.361231
0.158035 -0.067883 -0.289713
-0.082715 0.077737 0.202650
0.254400 -0.097031 0.340050
-0.086609 0.179541 -0.049940
-0.098796 0.253531 -0.135809
0.189324 -0.062919 -0.285339
0.247749 -0.092570 0.269685
-0.086243 0.122891 0.250094
-0.075844 -0.056039 0.070882
-0.077707 -0.069310 -0.213023
-0.090256 0.047373 -0.249276
-0.078223 -0.028705 0.226821
0.266186 -0.079030 0.332994
-0.079240 -0.025803 0.062774
-0.094827 0.136827 -0.233997
-0.085424 0.000192 0.422594
-0.024537 -0.071239 -0.037044
-0.079795 -0.056154 0.417965
0.167095 -0.082831 0.173074
-0.089207 0.098587 -0.175515
-0.078681 0.023778 0.020218
-0.096114 0.107449 -0.260089
-0.078324 -0.033361 0.153012
-0.087529 0.120517 -0.174238
-0.087217 0.211949 0.146691
-0.077862 -0.013039 0.218316
0.024792 -0.090499 0.410662
-0.080258 0.050715 0.091803
0.067361 -0.092468 0.410332
-0.056359 -0.076194 -0.247880
0.186594 -0.055502 -0.284371
0.188651 -0.053396 -0.284516
0.076580 -0.094525 0.342548
-0.087344 0.103666 -0.083546
0.191099 -0.090856 0.306594
-0.092986 0.176422 0.235366
-0.082561 0.074737 0.149061
0.092867 -0.068512 -0.141742
-0.010135 -0.082959 0.199289
-0.098721 0.085220 0.374674
-0.088036 0.161927 0.201980
0.000978 -0.071331 -0.194300
-0.105949 0.185685 0.406236
-0.079936 0.030614 0.006776
-0.075422 -0.052771 -0.055538
-0.085186 0.145979 0.098613
-0.079782 -0.032277 0.231961
0.128301 -0.064676 -0.289572
0.130301 -0.062589 -0.289687
-0.032161 -0.072305 -0.203404
-0.039164 -0.077383 0.047733
0.008994 -0.092257 0.282718
0.144637 -0.061351 -0.287335
-0.104367 0.089840 0.420916
0.267384 -0.082580 0.329171
-0.082984 0.097433 -0.020778
0.120417 -0.086628 0.217770
-0.079685 0.036221 -0.027993
0.083349 -0.097846 0.367688
0.224956 -0.070446 0.008683
-0.080954 -0.059576 0.258599
-0.086375 0.135263 -0.081313
-0.081790 -0.050036 0.285242
-0.098589 0.185416 -0.248144
0.041410 -0.068398 -0.188997
-0.063486 -0.067689 -0.280926
0.035495 -0.075119 -0.236226
0.104817 -0.087267 0.255164
-0.102482 0.232856 0.385354
0.107596 -0.100431 0.373876
0.171385 -0.097639 0.348546
0.073937 -0.073053 0.033123
0.252669 -0.093221 0.239162
-0.086745 0.057820 -0.154827
0.053796 -0.085813 0.248183
0.176719 -0.088416 0.266628
-0.041750 -0.082188 -0.283428
-0.097629 0.093980 0.373555
-0.088749 0.169653 -0.093725
-0.047859 -0.082140 -0.278847
0.044982 -0.070842 -0.193666
-0.078972 -0.026547 -0.092029
-0.093427 0.208544 -0.120393
-0.090533 0.087673 0.318557
-0.083134 0.090272 0.115526
-0.021855 -0.079682 0.118547
-0.085979 0.146345 0.182953
-0.078351 -0.035122 0.036246
0.028748 -0.081708 0.178024
-0.096149 0.180294 0.434459
0.214328 -0.098066 0.375537
-0.094101 0.060899 -0.262379
-0.057337 -0.082312 0.195391
0.228660 -0.085276 0.230649
0.018424 -0.074657 0.086196
0.222776 -0.088350 0.245641
-0.090520 0.005460 -0.265753
-0.084129 0.095447 -0.079045
-0.087014 -0.015963 0.345477
-0.092986 0.190970 -0.203739
-0.075743 -0.070754 -0.077600
0.006444 -0.089394 0.254063
-0.088542 0.180497 -0.118345
-0.098364 0.186773 0.349630
0.084613 -0.074617 -0.239384
0.018190 -0.073287 0.048010
-0.092365 0.227025 -0.082542
-0.006721 -0.091940 0.294654
0.084217 -0.070045 -0.290510
-0.007558 -0.069909 -0.147291
0.260355 -0.079066 0.080590
0.004836 -0.075366 0.069376
-0.081099 0.042708 0.189533
0.212355 -0.078696 0.096798
0.257910 -0.072948 -0.096847
0.175702 -0.070732 -0.198515
0.118827 -0.072706 0.006657
0.060081 -0.071670 -0.021263
-0.007126 -0.091195 0.282401
0.059790 -0.073943 0.042896
0.266459 -0.083118 0.362328
-0.019168 -0.070790 -0.060410
0.249049 -0.087108 0.181081
-0.080306 0.049755 0.116838
-0.074003 -0.084686 0.159728
-0.068493 -0.096582 0.369608
0.261531 -0.081576 0.182957
0.003259 -0.067275 -0.067580
-0.052356 -0.055550 -0.281195
-0.084367 0.041537 -0.142504
0.107820 -0.075833 0.018826
-0.087886 0.088545 -0.151542
0.074937 -0.076559 -0.287749
-0.091498 0.193653 -0.177352
0.087741 -0.076740 0.118565
-0.106217 0.161879 0.415353
0.001260 -0.096208 0.410261
0.025977 -0.077727 0.124132
0.106640 -0.056845 -0.286145
-0.074589 -0.049270 0.023297
0.187541 -0.076013 0.097696
-0.088080 0.076266 -0.147194
0.126786 -0.090107 0.407636
0.234646 -0.070953 -0.249060
0.180075 -0.081849 0.197157
-0.010901 -0.091781 0.278142
0.264909 -0.083003 0.225346
-0.101047 0.247334 0.291707
-0.006074 -0.070265 -0.207927
0.179344 -0.085615 0.247249
-0.013724 -0.076344 0.042861
0.209972 -0.072679 0.050877
0.140968 -0.068363 -0.045699
-0.086688 0.147758 -0.065845
-0.084389 0.115386 0.044337
0.256849 -0.083584 0.178196
-0.096083 0.167926 -0.249611
-0.082319 -0.012598 -0.195097
-0.085569 0.171903 0.097921
0.258712 -0.077832 0.049917
-0.082425 0.101331 -0.044153
-0.091251 0.222237 0.048010
-0.094114 0.192322 -0.201893
-0.057782 -0.076132 0.062589
-0.088569 0.143874 0.266717
0.237258 -0.078119 0.091940
0.035346 -0.081118 -0.291677
0.260553 -0.078462 0.041447
0.265090 -0.088821 0.246738
-0.091775 0.230112 -0.080837
0.207193 -0.077427 0.128008
-0.071669 -0.047006 -0.279134
-0.089696 0.194366 0.434706
-0.074554 -0.054665 -0.044725
0.066608 -0.075242 -0.286634
0.010253 -0.074353 0.026697
-0.081495 0.019501 -0.121785
-0.078505 -0.025904 0.049278
-0.080451 -0.007035 0.102629
0.003413 -0.076617 0.016743
-0.094048 0.158906 0.313743
-0.104671 0.150881 0.393542
-0.057064 -0.067482 -0.279451
-0.085953 0.142869 -0.063449
0.063340 -0.078458 -0.266246
0.157533 -0.073846 -0.240247
-0.001674 -0.072010 -0.034917
0.240826 -0.070992 -0.214190
-0.080095 -0.055524 0.260775
-0.077791 -0.092367 0.412908
0.239302 -0.080123 0.128268
-0.098959 0.139786 0.374784
0.151156 -0.091081 0.270253
-0.084310 0.135972 0.135808
-0.075276 -0.043619 -0.049209
0.080654 -0.078933 0.128593
0.190545 -0.072305 0.065615
0.202326 -0.090610 0.337954
-0.005228 -0.094415 0.330995
-0.092255 0.104401 0.318865
-0.082121 0.085806 0.066641
-0.089058 0.049751 -0.235710
-0.080932 -0.055066 0.268179
-0.081623 0.071016 0.087923
0.209942 -0.097881 0.378950
-0.073977 -0.076335 0.054709
0.241292 -0.082558 0.407813
-0.088040 0.129110 -0.154937
-0.094612 0.070760 0.361231
-0.080482 0.056886 0.057810
-0.091718 0.159774 -0.213878
0.090740 -0.095868 0.350665
-0.079046 -0.015096 -0.038969
-0.072189 -0.073551 -0.220775
0.229607 -0.070301 -0.073640
0.023348 -0.083858 -0.290519
0.210263 -0.086844 0.236432
-0.102553 0.051517 0.418159
-0.092806 0.211398 0.247024
-0.090890 0.108964 0.276063
0.111071 -0.093358 0.324476
0.176649 -0.068975 -0.066122
-0.007783 -0.079145 0.134870
-0.087045 0.156444 -0.027345
0.085829 -0.058470 -0.283639
0.049752 -0.096692 0.327771
0.240486 -0.082175 0.138856
-0.095391 0.110396 -0.271426
0.137202 -0.076670 0.127959
-0.087877 0.183373 0.152765
0.183594 -0.076233 -0.274742
-0.092806 0.226598 -0.108171
-0.011249 -0.071666 -0.113091
0.238980 -0.078687 0.083611
-0.081059 -0.012426 -0.131783
0.199415 -0.068874 -0.214591
-0.070334 0.090809 -0.272981
-0.079733 0.032732 0.059457
0.016486 -0.072173 0.050195
-0.088150 0.117266 -0.124679
-0.077333 -0.051582 -0.110964
-0.080421 -0.095234 0.359835
-0.071396 -0.056554 -0.279653
-0.079835 -0.039866 0.418282
0.023163 -0.070129 -0.058392
-0.093528 0.079569 0.360157
0.191223 -0.068121 -0.188138
-0.095748 -0.088231 0.404201
-0.082491 0.077261 0.067332
-0.084909 0.166882 0.087438
-0.096580 0.236376 -0.149648
-0.078853 -0.003521 0.090997
-0.104006 0.202347 0.403589
-0.090313 0.233768 0.074644
-0.082011 -0.073710 0.307255
-0.069898 0.109713 -0.272853
0.075932 -0.070230 -0.176660
0.084917 -0.071362 -0.223757
0.065595 -0.056096 -0.285190
-0.076567 -0.074749 0.122463
-0.093731 0.060344 -0.256645
0.120743 -0.100682 0.370481
-0.078381 -0.020583 0.040091
-0.084962 0.178920 0.038188
0.198177 -0.074798 0.064474
-0.091744 0.220771 -0.023245
-0.078201 0.008010 0.214154
-0.085746 0.036106 -0.196590
0.219442 -0.083651 0.225672
0.060015 -0.085368 0.217598
-0.087322 0.178448 0.148854
-0.044309 -0.072054 -0.207337
-0.094030 0.242088 -0.025676
0.256567 -0.075775 -0.262736
-0.086433 0.123085 -0.064171
-0.069502 -0.080202 0.133755
-0.075598 -0.090861 0.168123
0.059640 -0.069869 -0.184007
-0.083900 0.054521 0.219334
0.065234 -0.078942 0.146625
-0.089846 -0.052432 0.366966
0.119629 -0.072551 -0.006979
-0.087776 0.116861 -0.170199
-0.095435 0.227413 0.253966
-0.079615 0.028442 0.146216
0.242741 -0.080611 0.105558
-0.093524 0.227681 -0.100419
-0.084301 0.046518 0.291047
-0.093982 0.037493 0.388653
-0.083292 0.088439 0.184970
0.065877 -0.075348 0.056964
0.093621 -0.092301 0.311976
-0.063164 -0.054361 -0.278213
0.135414 -0.099198 0.367393
0.251762 -0.074401 -0.067153
0.135542 -0.072706 0.033731
-0.108089 0.216313 0.416665
0.025286 -0.081774 0.154214
-0.088983 0.181787 -0.078573
0.037464 -0.092530 0.287677
-0.084860 0.158364 0.068565
-0.089784 0.087171 -0.183099
0.133459 -0.081620 0.192475
-0.046683 -0.092147 0.304414
0.131076 -0.071164 -0.126234
-0.083565 0.045985 0.283674
0.219702 -0.093468 0.289774
0.052849 -0.095287 0.320045
0.111291 -0.070631 -0.144006
-0.095224 0.076345 0.365649
-0.091401 -0.048706 0.419572
0.263751 -0.072851 0.175347
0.262883 -0.078784 0.375145
0.262619 -0.076436 0.239052
-0.093859 0.048126 -0.258728
0.259791 -0.070864 -0.096526
0.263667 -0.077079 -0.269092
-0.094004 0.065171 0.356809
0.229550 -0.085681 0.196739
-0.076725 -0.079387 0.177100
-0.087049 -0.036853 0.337209
-0.083671 0.056719 -0.093848
0.196270 -0.072587 -0.077098
0.021247 -0.097419 0.354924
0.175768 -0.097278 0.404831
-0.088604 0.019162 0.326542
-0.083548 0.111056 -0.036414
0.131609 -0.100555 0.382262
-0.060363 -0.078211 0.075956
0.027448 -0.099185 0.368609
-0.007924 -0.096326 0.410402
0.133481 -0.092103 0.407597
-0.017583 -0.072243 -0.036458
0.042428 -0.074661 0.009123
-0.027594 -0.078334 0.071261
0.065569 -0.108901 0.404677
-0.087974 0.179091 0.130571
0.060332 -0.090583 0.410526
0.116281 -0.071265 -0.128493
0.006629 -0.078251 0.124903
0.091947 -0.096212 0.342904
-0.081359 0.210632 -0.269713
-0.099109 -0.013937 0.421092
0.206766 -0.079387 0.153038
-0.092414 0.231328 0.196558
-0.024630 -0.075643 0.012043
-0.071951 0.214005 -0.268378
0.100069 -0.071248 -0.208588
-0.094546 0.243947 0.123687
-0.081368 0.044527 0.049807
-0.081645 -0.007220 -0.127652
0.186748 -0.070261 -0.219493
0.217301 -0.070948 -0.078199
-0.089723 0.147027 -0.128145
0.165726 -0.084373 0.205733
0.210699 -0.088918 0.254142
-0.080495 0.137760 -0.270373
0.220006 -0.072547 0.036950
-0.090899 0.210579 -0.191582
-0.074541 -0.075753 0.029278
-0.109472 0.175211 0.420902
-0.073153 -0.061968 -0.038141
0.123698 -0.080435 0.134883
0.200468 -0.080431 0.183178
-0.058042 -0.076057 0.069429
0.245631 -0.093155 0.290518
-0.092462 0.118610 -0.216604
-0.086032 -0.064958 0.329444
-0.074756 -0.084650 -0.040004
0.172733 -0.076498 0.121458
-0.092687 0.208610 -0.088840
0.136982 -0.082651 0.215334
0.165580 -0.089306 0.267589
-0.080064 0.059110 -0.274764
0.237174 -0.084945 0.191683
0.002854 -0.069979 -0.109008
-0.080874 0.023611 -0.016673
-0.090529 0.164715 0.225178
-0.084116 0.050368 0.210159
0.157965 -0.098326 0.404025
-0.079465 -0.012559 0.091539
-0.084204 0.136721 -0.069170
0.259135 -0.072569 -0.150101
-0.031426 -0.088989 -0.289242
-0.017759 -0.067803 -0.072156
-0.088494 0.200083 0.094411
0.020207 -0.084285 0.221730
0.006422 -0.075405 -0.283992
-0.108433 0.183624 0.419586
-0.080909 0.050993 0.105351
-0.079491 -0.021799 0.226275
0.260500 -0.096230 0.290104
-0.007307 -0.070517 -0.115069
-0.086948 0.079252 -0.165248
0.148020 -0.079167 0.407482
0.250537 -0.086826 0.167040
0.042851 -0.050089 -0.282190
0.053051 -0.101880 0.380276
-0.085530 0.184024 0.067909
-0.030540 -0.081585 -0.284674
-0.090207 0.193525 -0.127106
-0.077461 -0.042403 -0.020941
-0.068141 -0.081479 0.158024
0.206678 -0.095957 0.356633
0.229224 -0.070842 -0.244938
-0.093260 0.228007 0.034409
0.229726 -0.090433 0.271667
0.153129 -0.070129 -0.174669
-0.063111 -0.071389 -0.186240
0.256712 -0.085104 0.163873
-0.060557 -0.077440 -0.245792
-0.083455 0.035573 -0.128172
-0.072858 0.029024 -0.275989
-0.080848 0.046813 0.198650
0.197570 -0.084849 0.221179
0.230493 -0.078409 0.116472
-0.088556 -0.082016 0.364363
-0.077694 -0.087500 0.252301
0.117105 -0.087526 0.219492
-0.077950 -0.067729 -0.237397
0.217812 -0.072565 -0.257631
-0.082561 0.038718 0.110852
0.182493 -0.072794 -0.251337
-0.089881 0.227642 -0.090496
-0.077646 -0.034343 0.222395
-0.085265 0.154506 0.149620
0.162233 -0.070635 -0.221343
0.047489 -0.071847 -0.229271
-0.022859 -0.071005 -0.156576
-0.077743 0.008587 0.194942
0.190937 -0.081466 0.169660
-0.092868 0.176960 -0.168767
-0.083165 0.033107 -0.065946
-0.090357 0.199819 0.236925
0.210307 -0.072362 0.044310
0.199014 -0.071750 0.020288
-0.046013 -0.087786 0.254860
-0.096272 0.141940 -0.267766
-0.079852 -0.033555 -0.211816
-0.077663 0.216904 -0.268224
-0.104473 0.212213 0.404492
0.199428 -0.073512 0.077766
-0.077892 0.019594 0.087258
-0.001136 -0.068178 -0.058480
0.187501 -0.095349 0.351630
0.063543 -0.068733 -0.185962
0.123698 -0.080959 0.193687
0.009571 -0.073406 0.008238
-0.089934 0.221053 0.058968
-0.091815 -0.055951 0.372467
0.115057 -0.073018 -0.247514
0.226758 -0.080114 0.163917
0.170284 -0.095291 0.331554
0.054672 -0.102876 0.378250
0.122914 -0.077590 0.098317
-0.081945 0.041713 -0.105784
-0.089873 0.038476 -0.249426
0.035143 -0.071560 -0.200118
-0.079901 0.021765 0.186675
-0.055403 -0.088214 0.248315
0.263570 -0.078149 0.138200
-0.088045 0.093007 -0.167525
-0.084693 0.108590 0.187437
-0.097303 0.176828 -0.242374
-0.093229 0.236587 -0.049447
-0.082138 0.025170 -0.014573
-0.089423 0.158369 -0.126815
-0.099386 0.080181 0.390908
-0.093599 -0.096102 0.396956
0.092075 -0.070701 -0.169287
0.101597 -0.086716 0.409398
-0.073955 -0.081765 0.188432
0.011293 -0.097665 0.368697
-0.085860 0.159390 0.025147
0.082570 -0.096547 0.356175
-0.029880 -0.067077 -0.075715
-0.000652 -0.088821 0.411195
0.121866 -0.070389 -0.079260
-0.014627 -0.070759 -0.024267
-0.087173 0.105410 0.244937
-0.079910 0.084066 0.025147
-0.089855 0.182456 -0.096667
0.180648 -0.101026 0.404694
0.019534 -0.067218 -0.073041
-0.044991 -0.078193 0.110632
-0.087243 0.205514 0.033053
-0.111058 0.242868 0.424884
-0.096774 0.208425 -0.239798
-0.100135 0.252707 -0.250875
-0.087089 -0.002961 0.316174
0.257734 -0.079074 0.069363
0.055513 -0.077436 0.115596
-0.100117 0.105758 0.403082
-0.087992 -0.018416 0.325265
0.179859 -0.087575 0.264990
-0.040464 -0.088130 0.257040
0.144316 -0.105060 0.395436
0.176160 -0.074458 0.061355
-0.079412 0.020158 0.114543
0.261126 -0.094023 0.390195
0.247419 -0.084774 0.408011
-0.012359 -0.094552 0.369084
-0.078765 0.010895 0.178113
0.256034 -0.075031 -0.097173
-0.085966 0.036538 -0.202536
0.119307 -0.070010 -0.123120
0.266054 -0.090191 0.396282
-0.080143 0.072513 0.126321
-0.043789 -0.072424 -0.181694
0.156124 -0.083100 0.200747
-0.094598 0.130555 0.345565
0.174341 -0.073710 0.069909
-0.047260 -0.080211 0.413433
0.212360 -0.072767 0.068777
-0.086957 0.164438 -0.021787
0.267362 -0.082347 0.395203
0.226745 -0.073053 0.057854
0.063776 -0.097185 0.330110
-0.108120 0.178338 0.428452
-0.070559 -0.074423 -0.005491
-0.094827 0.182672 -0.182443
0.124258 -0.072807 -0.227840
0.150869 -0.070340 -0.140253
-0.100747 0.251056 0.281251
-0.084816 0.104996 0.152906
-0.082046 0.078864 -0.015343
0.124910 -0.070270 -0.055093
0.100042 -0.093433 0.306273
-0.087146 0.124063 -0.152788
0.147927 -0.076418 -0.281314
-0.078183 -0.066288 0.110452
-0.083270 -0.027516 0.295856
0.072123 -0.084386 0.222584
-0.097638 0.101560 -0.269448
-0.085067 0.133629 -0.012890
0.220737 -0.092997 0.335470
-0.104583 0.235314 0.395172
0.097144 -0.080347 0.181002
0.172266 -0.094309 0.337478
-0.081724 -0.058131 0.417767
0.178886 -0.095842 0.364204
-0.083953 0.069434 0.210626
0.171676 -0.069957 -0.102732
-0.084622 0.116716 0.231618
0.108908 -0.088319 0.224927
-0.101857 0.166997 0.383408
-0.081601 0.009301 0.262691
-0.081205 -0.060378 0.271072
-0.082649 -0.035479 -0.185275
0.118312 -0.069023 -0.128150
-0.050840 -0.078207 0.128127
0.073536 -0.071204 -0.215172
0.046757 -0.074701 0.025622
-0.081429 0.046258 0.121687
0.087829 -0.097348 0.358192
0.165153 -0.069803 -0.084599
-0.089577 0.202677 0.186970
-0.090309 0.223792 0.003424
-0.039477 -0.079541 -0.269765
-0.083693 0.015859 0.281806
0.227542 -0.069451 -0.196467
-0.008012 -0.060897 -0.281591
-0.085539 0.138280 0.010017
-0.090886 0.052305 -0.245303
-0.092828 0.051099 -0.270290
-0.077034 -0.032753 0.190934
0.151596 -0.084567 0.222646
-0.087789 0.220396 0.127418
-0.096325 0.107489 0.369203
-0.084186 0.149115 0.087192
-0.091612 0.047355 0.348784
0.185827 -0.091935 0.296455
0.058795 -0.097049 0.333924
0.263447 -0.077154 0.158856
-0.091471 0.113483 -0.195326
-0.077743 -0.045733 -0.119358
0.115603 -0.078273 0.142679
-0.083112 0.022606 -0.150414
-0.065296 -0.046834 -0.277641
0.075571 -0.075846 0.069098
-0.089199 0.062440 -0.239503
0.140391 -0.068517 -0.098054
0.124293 -0.076449 0.117983
0.201159 -0.086593 0.243404
0.124487 -0.070891 -0.186936
-0.085345 0.180096 -0.268805
-0.032707 -0.072005 -0.183002
-0.087798 0.035406 -0.233971
-0.079579 0.111021 0.430777
-0.043243 -0.095732 0.344974
0.070405 -0.086742 0.228495
-0.099664 0.192842 0.361355
-0.008016 -0.067174 -0.059123
-0.089150 0.183148 -0.006869
-0.033663 -0.083637 0.176708
-0.090595 0.139940 -0.170965
0.262636 -0.075454 0.121370
-0.081354 -0.005551 0.097969
-0.018979 -0.077313 0.085456
0.033610 -0.068953 -0.098094
-0.050043 -0.072177 -0.190014
-0.095656 0.221986 -0.218291
0.191055 -0.074714 0.089575
-0.088357 -0.020495 0.356188
-0.085186 0.162799 0.039853
-0.085622 0.048817 -0.200576
0.021683 -0.084448 0.200756
-0.090295 0.228258 0.167040
0.038688 -0.096494 0.349313
0.182771 -0.071411 -0.000276
0.090753 -0.088478 0.284352
0.209752 -0.070591 -0.098627
0.193813 -0.069495 -0.197779
0.252449 -0.074031 -0.198999
-0.087758 0.203245 0.089636
-0.057993 -0.084738 -0.284450
-0.090172 0.045690 0.346468
-0.081742 0.077036 0.188547
-0.090300 0.059573 -0.227809
0.073114 -0.087465 0.265378
0.250731 -0.091768 0.268135
-0.020987 -0.086381 0.217686
-0.080522 -0.031872 0.239255
0.244287 -0.090636 0.405496
0.186338 -0.074736 -0.268959
-0.020613 -0.057717 -0.282199
-0.014041 -0.057435 -0.280790
-0.093995 0.162548 -0.210116
0.090520 -0.068477 -0.100477
-0.091762 0.234618 0.050714
0.230973 -0.069257 -0.185689
0.113625 -0.070640 -0.099675
-0.081698 0.061242 0.106778
-0.087754 0.110695 0.249121
-0.085741 0.167503 0.030767
0.267512 -0.089213 0.356510
-0.086367 0.186015 0.166269
-0.077122 -0.074375 -0.223475
0.069938 -0.092244 0.276957
0.220768 -0.071952 0.023711
0.137489 -0.098203 0.373255
0.262702 -0.073164 0.129792
0.263592 -0.074991 0.167115
-0.101108 0.226303 -0.262282
-0.010425 -0.071900 -0.140222
0.113546 -0.092411 0.408988
0.265182 -0.091098 0.290866
0.262579 -0.077771 0.112918
0.000568 -0.083589 0.203980
0.198790 -0.081210 0.170616
-0.101641 0.076851 0.409610
-0.088868 -0.092248 0.357404
-0.089727 0.210993 0.167269
-0.051752 -0.097340 0.363134
-0.047453 -0.070045 -0.144103
0.096999 -0.089072 0.272645
-0.088485 0.178431 -0.004297
-0.081715 0.048742 -0.056080
-0.098003 0.227170 0.332867
0.213589 -0.074163 0.073296
-0.074202 -0.071825 -0.053301
-0.087565 0.140667 -0.095821
-0.001053 -0.070362 -0.159078
-0.014284 -0.076269 0.056502
0.248595 -0.095789 0.319059
0.214478 -0.096256 0.357175
-0.088265 0.161359 -0.087109
-0.080399 0.059692 0.104651
0.085974 -0.095186 0.295530
-0.092409 -0.010193 0.360236
-0.081249 0.037145 0.108703
-0.079038 -0.016624 0.069076
-0.097197 0.255020 0.024459
-0.086750 0.054640 -0.208420
-0.014940 -0.075903 -0.258653
0.135031 -0.091283 0.308391
-0.098281 0.255257 -0.160676
-0.081323 -0.025331 0.096851
0.245780 -0.100299 0.402990
0.027845 -0.073807 -0.229460
-0.083746 0.099636 0.431055
0.228894 -0.086694 0.242466
0.004739 -0.072891 -0.027244
-0.086494 -0.008665 0.311690
0.267336 -0.094935 0.332171
0.035183 -0.074661 0.054004
-0.033866 -0.077352 0.050406
-0.093229 -0.007881 0.421726
-0.093299 0.022320 -0.270928
-0.097175 0.231804 -0.190913
-0.073651 -0.069570 0.008260
-0.004827 -0.074886 -0.239000
0.127182 -0.079162 0.126761
0.198221 -0.096485 0.369062
-0.074228 -0.094820 0.189925
-0.079359 0.166957 0.430724
-0.077360 -0.032850 0.056317
-0.088749 -0.025671 0.359271
-0.092740 0.237574 0.111346
0.047519 -0.072146 -0.216375
-0.091700 0.125542 -0.199488
0.037675 -0.079867 0.146581
-0.089309 0.201735 0.141155
-0.103381 0.196960 0.399299
-0.091194 0.175467 -0.145464
-0.086124 0.116434 0.110645
-0.083786 0.177453 0.029802
-0.090762 0.084643 -0.216203
0.070224 -0.098353 0.377017
-0.093713 0.200422 -0.267114
-0.084931 0.018422 -0.222532
-0.085279 0.163007 0.059325
-0.091167 0.178704 -0.168882
-0.097175 0.100970 -0.263815
-0.096259 0.008530 0.389314
-0.082552 0.088519 0.152342
-0.077699 -0.071728 -0.169798
-0.096351 0.186539 -0.242705
-0.090740 0.108004 0.300943
0.193628 -0.098952 0.370436
0.192641 -0.068579 -0.044765
-0.070141 -0.035541 -0.278684
-0.082676 -0.005115 0.118582
-0.090282 0.215873 0.171145
-0.081042 0.032591 0.195206
0.195204 -0.097247 0.370670
-0.079271 0.013767 -0.050557
-0.098250 0.073641 0.391820
0.230731 -0.068909 -0.099653
-0.088172 0.120653 -0.269920
0.001357 -0.089645 0.264219
0.055249 -0.068966 -0.107594
0.085789 -0.072173 -0.218489
-0.098285 0.244193 -0.174885
-0.097228 0.252148 0.048133
0.196438 -0.072261 0.008621
0.236399 -0.091213 0.285819
-0.087428 0.218828 0.081096
0.199789 -0.071574 -0.078873
