0.016459 -0.043134 0.190256
-0.007329 -0.043879 0.378276
0.076690 -0.048847 0.004463
-0.086904 -0.091671 -0.035793
0.019472 -0.135262 -0.288665
0.011381 -0.042324 0.225694
0.006739 -0.043605 0.228808
0.067538 -0.038752 -0.379445
-0.001713 -0.054986 0.227975
-0.098791 -0.056242 -0.098415
-0.008060 -0.063518 0.227350
-0.083134 -0.080889 0.034414
0.049308 -0.068226 0.010370
0.100408 -0.078854 -0.328454
0.046837 -0.097824 -0.136963
0.092612 -0.014800 -0.383510
-0.046995 -0.096349 0.076634
-0.044555 0.081331 -0.345315
-0.073224 -0.099348 0.032493
0.035848 -0.090482 0.031256
-0.060372 -0.108011 -0.241423
-0.066670 0.072152 -0.266489
-0.085094 -0.024596 -0.013604
-0.119990 -0.022993 -0.219916
-0.076787 0.016762 -0.119253
-0.083446 -0.014329 -0.341840
-0.019723 -0.136830 -0.287731
0.086714 -0.110302 -0.325120
0.045687 -0.111539 -0.180505
0.049118 -0.124528 -0.338867
0.065296 -0.117239 -0.322425
-0.082240 -0.114239 -0.017435
0.121091 -0.046363 -0.378537
-0.017102 -0.060021 0.185772
-0.094475 -0.011673 -0.309766
-0.092088 -0.013034 -0.316611
0.121320 -0.053467 -0.385787
-0.047401 -0.094516 -0.376467
-0.086160 0.043761 -0.347288
-0.079637 -0.094644 -0.164790
-0.068502 0.079450 -0.278138
-0.070453 -0.117847 -0.036714
-0.030483 -0.126114 -0.340452
0.001224 -0.125757 -0.209288
-0.088093 0.032657 -0.376991
-0.111062 0.021439 -0.226051
-0.091352 0.016978 -0.371728
0.007426 -0.088583 0.019738
0.070991 -0.060422 -0.382730
-0.098756 0.028160 -0.275509
0.029448 -0.114768 -0.226998
-0.061464 0.071148 -0.347054
-0.091551 0.034098 -0.307410
0.024726 -0.117631 -0.116698
0.105301 -0.039879 -0.179140
0.127817 -0.061038 -0.233209
-0.073475 -0.110799 -0.107000
0.026013 -0.119291 -0.187539
-0.020472 -0.127519 -0.337669
0.122307 -0.052780 -0.268567
0.115753 -0.046028 -0.287000
-0.070154 -0.107690 -0.169419
-0.044859 -0.114649 -0.349803
-0.105856 0.017911 -0.250650
-0.073171 -0.011554 0.053824
-0.091837 -0.017192 -0.334026
-0.085459 -0.045297 -0.286542
-0.058821 -0.084972 -0.377608
-0.003739 -0.055572 0.196554
0.084147 -0.107298 -0.255720
-0.086124 0.012340 -0.334590
-0.024793 -0.117595 -0.116883
-0.121990 0.003984 -0.238767
-0.030232 -0.134636 -0.311563
-0.104896 -0.017346 -0.307388
-0.091440 -0.088561 -0.141284
0.051232 -0.081325 -0.120922
-0.079923 -0.089790 -0.255935
-0.070634 -0.021257 0.064143
0.118334 -0.038611 -0.361911
0.032170 -0.108293 -0.251179
-0.026167 -0.023737 0.364279
-0.032954 -0.123379 -0.057141
-0.021555 -0.046288 0.278349
-0.065939 -0.109901 0.006212
-0.062891 0.040801 -0.068835
0.095968 -0.082320 -0.368143
0.104011 -0.048089 -0.142085
-0.006201 -0.046495 0.320790
-0.074312 0.037841 -0.147815
0.000973 -0.137865 -0.281041
-0.031214 -0.132795 -0.318668
0.023022 -0.122476 -0.232125
0.072501 -0.100409 -0.171221
-0.015808 -0.056643 0.393432
0.131080 -0.061360 -0.247911
-0.088111 -0.065742 -0.060634
-0.085803 -0.057418 0.055868
0.011222 -0.087372 0.054683
-0.044005 -0.063346 -0.364919
-0.061477 -0.120595 -0.158073
0.092379 -0.079079 -0.143402
-0.080121 0.047923 -0.348292
0.042789 -0.110482 -0.227289
-0.012068 -0.031749 0.260026
0.040851 -0.106844 -0.057555
-0.034751 -0.062320 0.410446
-0.063693 -0.082510 -0.369160
0.102751 -0.049860 -0.348054
0.090388 -0.059219 -0.366817
-0.056135 0.057921 -0.240996
0.052360 -0.110852 -0.210530
0.094325 -0.053643 -0.083326
0.021635 -0.131610 -0.317236
-0.058645 -0.116649 -0.130977
0.111362 -0.092530 -0.253707
0.052030 -0.113240 -0.371063
-0.022071 -0.103470 -0.379176
-0.037218 -0.106206 0.042808
0.119479 -0.076238 -0.202012
0.031210 -0.087848 0.004943
-0.076818 0.032785 -0.117689
-0.084649 -0.049318 -0.273051
-0.091722 -0.003098 -0.100041
0.123011 -0.062932 -0.257217
0.107279 -0.089011 -0.202157
-0.102297 0.022672 -0.182879
-0.095625 -0.050472 -0.175202
-0.006893 -0.051630 0.366195
-0.049286 -0.049824 -0.367187
-0.060077 -0.080911 -0.261269
-0.103037 0.026861 -0.268915
-0.003801 -0.050498 0.258661
-0.107041 -0.040527 -0.165808
-0.030382 -0.038250 0.277195
0.003070 -0.128690 -0.340439
0.047387 -0.087888 0.025270
-0.037561 -0.122929 -0.093425
-0.062235 0.054609 -0.161835
-0.118836 -0.001164 -0.232002
0.084754 -0.062553 -0.373811
0.060904 -0.109372 -0.278922
-0.069850 0.023056 -0.000536
0.028206 -0.115310 -0.244132
-0.084512 0.035974 -0.346125
-0.095598 -0.013021 -0.092073
-0.072841 -0.052582 -0.383505
-0.024185 -0.045543 0.349335
-0.084785 0.035851 -0.351239
0.107684 -0.060360 -0.322984
-0.078562 0.026090 -0.109334
-0.067335 0.071606 -0.328626
-0.084499 -0.083853 -0.204690
-0.073598 0.054169 -0.369385
-0.083702 -0.029110 0.004596
-0.070229 -0.022257 0.037611
-0.085164 -0.049463 -0.319536
0.001198 -0.042170 0.252887
-0.072885 -0.106258 -0.167569
-0.092057 -0.006577 -0.345015
-0.015275 -0.044570 0.246276
0.074109 -0.084377 -0.084066
0.105865 -0.034475 -0.293140
-0.019728 -0.133614 -0.328446
0.016759 -0.037219 0.148281
0.019265 -0.128977 -0.347838
0.043168 -0.096934 -0.072636
0.019670 -0.034832 0.187675
-0.081196 -0.068543 0.069825
-0.094400 -0.005445 -0.089435
0.005197 -0.133328 -0.297769
0.098320 -0.100749 -0.251165
-0.081134 -0.037862 -0.394266
-0.079381 -0.035202 -0.393948
-0.068247 0.044298 -0.251557
0.006127 -0.122048 -0.074733
0.017472 -0.043852 -0.296676
0.051294 -0.057977 -0.005081
-0.083402 0.036859 -0.247761
-0.085036 0.014797 -0.349605
-0.051580 0.084608 -0.299253
-0.064036 0.071086 -0.314801
-0.015583 -0.049252 0.399497
-0.025352 -0.125792 -0.290819
-0.034245 -0.117093 -0.303838
-0.057412 -0.113733 -0.224444
-0.046740 -0.102748 -0.323204
-0.069960 0.067065 -0.308599
-0.004352 -0.091270 0.025640
-0.064816 -0.074665 -0.354982
0.082072 -0.088614 -0.344808
-0.010417 -0.136883 -0.248999
-0.011962 -0.057145 0.242884
-0.056364 0.038934 -0.046685
-0.082530 -0.018311 -0.338748
0.047590 -0.109690 -0.224994
0.115211 -0.062003 -0.379154
-0.079381 -0.024640 -0.394693
-0.105477 0.012613 -0.289343
-0.013689 -0.114090 -0.023293
-0.086278 0.001263 -0.126617
0.036015 -0.111495 -0.091267
-0.040675 -0.006811 0.144661
0.038653 -0.071292 0.078409
0.107138 -0.033317 -0.309749
0.123390 -0.054405 -0.261520
0.053483 -0.107919 -0.127855
-0.080240 -0.078000 0.049860
0.092392 -0.065385 -0.117209
0.047568 -0.102180 -0.139817
0.007897 -0.127928 -0.338113
0.040855 -0.039826 0.118719
0.024911 -0.133412 -0.247554
-0.096395 -0.014492 -0.315254
0.069242 -0.107840 -0.191424
-0.102760 -0.042540 -0.147873
0.050158 -0.105193 -0.237062
0.115497 -0.054291 -0.188028
-0.090212 0.033979 -0.370283
-0.078447 -0.015461 -0.017986
0.046771 -0.087029 0.052331
-0.088569 -0.069305 0.026212
-0.060896 -0.107989 -0.220436
-0.106689 -0.030700 -0.281076
0.010927 -0.108540 -0.040158
0.016327 -0.087601 0.035400
-0.107521 -0.012303 -0.143349
-0.017512 -0.052714 0.245346
-0.099611 -0.055502 -0.056256
-0.074695 -0.062346 -0.366024
-0.102130 -0.050732 -0.136051
0.097342 -0.082545 -0.372816
-0.103103 0.026667 -0.274148
-0.091599 -0.032669 -0.397670
-0.093660 -0.024728 -0.403757
0.049034 -0.122753 -0.300847
-0.116096 -0.003411 -0.265304
0.047766 -0.101660 -0.034097
-0.089454 0.038489 -0.342813
0.081667 -0.098885 -0.300588
0.003347 -0.039333 0.264677
0.017309 -0.041337 0.139627
0.099175 -0.052824 -0.081013
-0.034892 -0.045812 0.363248
0.050404 -0.110095 -0.384796
-0.113885 0.010587 -0.255244
0.068154 -0.107937 -0.186416
-0.052844 0.069368 -0.216947
-0.027779 -0.118547 -0.101353
-0.100756 0.010921 -0.167785
0.042626 -0.125277 -0.286419
0.017789 -0.109830 -0.386677
0.002312 -0.112636 -0.037295
0.113101 -0.029542 -0.375247
0.105517 -0.035435 -0.181373
0.030602 -0.129355 -0.291065
-0.082729 -0.113275 0.004067
-0.092771 0.033199 -0.338338
0.029197 -0.119604 -0.246871
0.072083 -0.052555 0.020535
0.118880 -0.081431 -0.221894
-0.087653 -0.052489 0.022495
-0.017191 -0.062108 0.231411
0.084261 -0.107800 -0.199660
-0.016248 -0.028547 0.271654
-0.059213 0.047562 -0.062493
0.090071 -0.106954 -0.202395
-0.058156 -0.081809 -0.335105
-0.031888 -0.126854 -0.210737
-0.068115 -0.069319 -0.351225
0.099315 -0.054956 -0.352873
-0.078166 -0.056973 -0.367368
0.002933 -0.120956 -0.194146
0.100672 -0.041337 -0.108541
-0.053642 0.061779 -0.167931
-0.005149 -0.026455 0.243382
-0.107688 0.015088 -0.251003
-0.026783 -0.031493 0.259568
0.065586 -0.119846 -0.332026
0.014253 -0.026455 0.191317
-0.076267 -0.015439 -0.387064
-0.001057 -0.028793 0.278014
-0.074347 0.047694 -0.366579
-0.054153 -0.014981 -0.365866
-0.018565 -0.129100 -0.218722
0.017543 -0.139177 -0.259820
-0.046128 0.051499 -0.092738
0.122315 -0.078396 -0.260565
0.033553 -0.117965 -0.172828
-0.035848 0.001690 -0.356854
-0.020802 0.002425 -0.342681
-0.082579 -0.013757 -0.030935
0.009271 -0.133205 -0.312246
0.001339 -0.114719 -0.047888
0.117184 -0.080576 -0.189869
0.083799 -0.102823 -0.336303
-0.074307 0.001892 0.049631
-0.027083 -0.066711 0.205957
-0.041089 -0.117706 -0.348962
0.066406 -0.053740 0.023521
-0.096889 -0.044746 -0.078904
-0.076157 -0.092592 -0.144776
-0.085301 -0.006410 -0.348032
0.082896 -0.108417 -0.216824
0.110115 -0.094151 -0.236838
-0.081341 -0.033052 -0.319566
-0.092180 0.048571 -0.311405
-0.108424 0.019651 -0.238375
-0.091132 -0.059364 0.016012
0.051047 -0.059739 0.040298
-0.001942 -0.063597 0.207393
0.108767 -0.084474 -0.298451
0.107697 -0.096670 -0.236873
-0.026383 -0.031590 0.265461
0.052457 0.009895 -0.363589
-0.111520 0.008503 -0.283124
-0.083631 0.011067 -0.336264
0.002792 -0.118732 -0.056084
-0.068718 0.041374 -0.107409
-0.064327 -0.074925 -0.339761
-0.024189 -0.126021 -0.145521
-0.074294 -0.062522 -0.355912
-0.036641 -0.125422 -0.203038
-0.074853 -0.027877 0.063285
0.071898 -0.080114 -0.132158
0.105962 -0.033101 -0.304961
-0.048044 -0.123017 -0.082590
-0.088745 0.038506 -0.265361
-0.075373 0.051486 -0.369702
0.017882 -0.117199 -0.366007
-0.120408 -0.019222 -0.233693
-0.060944 0.047284 -0.206980
0.043084 -0.112108 -0.114804
-0.086054 -0.014281 -0.392473
-0.112340 -0.013391 -0.297139
-0.071841 0.039405 -0.236419
-0.016922 -0.126695 -0.068602
0.088661 -0.082589 -0.360990
-0.080438 0.061304 -0.306234
-0.085816 0.022228 -0.097279
-0.081156 0.039083 -0.185636
-0.096012 0.029389 -0.219216
-0.084521 -0.053890 0.041214
-0.090696 -0.085315 -0.057309
-0.055866 -0.090746 -0.272514
-0.082913 0.057882 -0.322094
-0.092956 0.039079 -0.221726
-0.037288 -0.062747 0.192506
0.119259 -0.080581 -0.199841
-0.084380 -0.058290 0.044482
0.114678 -0.047301 -0.303649
0.128292 -0.072388 -0.243647
-0.112859 0.018361 -0.231711
0.009042 -0.112768 -0.061277
-0.065318 -0.102004 -0.189979
-0.089296 0.019708 -0.366333
-0.026453 0.053653 -0.370407
-0.032201 -0.090354 0.070688
0.063032 -0.114984 -0.352767
0.097082 -0.051067 -0.049694
-0.101963 0.018008 -0.293862
-0.070431 0.037877 -0.113280
-0.074946 -0.058246 0.092037
-0.072929 0.003385 -0.105903
0.062292 -0.108853 -0.183676
-0.005748 -0.132720 -0.098094
-0.083490 -0.033982 -0.018281
0.082068 -0.099674 -0.350102
0.084208 -0.083417 -0.335211
0.106486 -0.017386 -0.301843
-0.037922 -0.123149 -0.283965
0.011962 -0.127298 -0.090941
-0.070744 -0.047089 0.089623
0.078271 -0.088011 -0.107651
-0.112511 -0.023693 -0.259917
-0.018653 -0.090953 0.050811
0.117427 -0.084967 -0.248708
0.120100 -0.049058 -0.383241
0.044458 -0.060474 0.075965
0.037869 -0.126048 -0.288704
0.021899 -0.090002 0.056546
-0.022960 -0.061628 0.188881
-0.101417 -0.011907 -0.311872
0.107856 -0.095864 -0.214917
0.055804 -0.059069 -0.018664
0.094479 -0.095023 -0.189495
0.129605 -0.068231 -0.250681
-0.004286 -0.122172 -0.186442
-0.086873 -0.070785 -0.141081
0.122553 -0.057867 -0.388333
0.045401 -0.089077 -0.131264
-0.115348 -0.028648 -0.182941
-0.080641 -0.095111 -0.019365
-0.069172 0.016233 -0.387355
0.088071 -0.076969 -0.342007
0.052567 -0.102634 -0.047579
0.057733 -0.122079 -0.312999
0.004440 -0.133984 -0.314572
-0.087177 -0.037210 -0.303094
-0.053879 0.033824 -0.381766
0.101870 -0.100973 -0.210028
0.092911 -0.079118 -0.377141
-0.091066 -0.003794 -0.111003
-0.047793 0.048416 -0.383598
-0.045996 0.051112 -0.383285
-0.056641 0.006887 0.069579
0.070753 -0.099207 -0.384615
-0.027995 -0.061985 0.180645
-0.033355 0.070038 -0.381101
0.083600 -0.102228 -0.286582
-0.003149 -0.121982 -0.191477
0.112304 -0.028824 -0.342641
-0.085561 -0.045358 -0.296892
-0.008430 -0.137543 -0.297681
-0.013737 -0.085518 0.056286
0.052897 -0.103519 -0.152810
0.068018 -0.105959 -0.354727
-0.038076 -0.034308 0.183755
-0.092740 -0.067262 -0.007314
0.071343 -0.053537 -0.035088
-0.040591 -0.121771 -0.282168
-0.049334 -0.113116 -0.295271
0.077139 -0.040395 -0.384285
-0.058936 -0.100273 -0.311405
-0.065106 -0.093191 -0.321161
-0.023471 -0.062382 0.408601
-0.064142 -0.106505 0.033299
0.038415 -0.117137 -0.170512
-0.104746 0.024668 -0.253504
-0.079346 -0.059928 -0.352516
0.118448 -0.088328 -0.229632
0.008804 -0.126629 -0.182245
-0.090604 -0.068587 -0.055503
-0.060129 0.004746 0.080642
0.115832 -0.067469 -0.186434
0.075056 -0.102810 -0.352406
0.039759 -0.112504 -0.177779
-0.091304 0.044739 -0.308234
-0.103011 -0.045464 -0.060850
-0.112983 -0.017839 -0.163922
-0.055214 0.055362 -0.216569
0.033703 -0.086152 0.072331
-0.003713 -0.047358 0.235234
-0.105830 -0.064822 -0.119543
-0.031760 -0.126396 -0.093879
-0.117387 -0.009515 -0.236173
-0.076219 0.016009 -0.389416
0.073338 -0.110984 -0.343478
-0.068101 0.022818 -0.385078
-0.066326 0.025496 -0.384765
0.120430 -0.043936 -0.263168
-0.065617 0.032005 -0.387536
-0.044921 -0.122388 -0.192617
-0.092594 -0.030251 -0.064400
0.028413 -0.123282 -0.172921
0.110454 -0.069266 -0.299980
-0.079038 0.030156 -0.112593
-0.000850 -0.052458 0.196541
0.074809 -0.090883 -0.102516
0.086710 -0.042068 -0.389126
-0.069577 -0.096978 0.062928
-0.060808 0.081370 -0.254922
0.101187 -0.077656 -0.311929
-0.056522 0.064026 -0.155303
-0.073928 -0.098996 0.038148
-0.047242 -0.035030 0.156535
-0.021811 -0.048534 0.295345
0.126751 -0.060946 -0.228289
-0.018886 -0.058783 0.387178
0.110622 -0.065667 -0.173617
-0.031941 -0.130549 -0.263885
-0.092269 -0.034585 -0.299667
0.018512 -0.118534 -0.214477
0.119770 -0.046050 -0.373877
-0.102315 0.004213 -0.159522
-0.072929 -0.077898 -0.331894
-0.047916 -0.127356 -0.202827
-0.101527 -0.050789 -0.105242
-0.084565 -0.057268 -0.354198
0.003065 -0.134020 -0.309758
-0.093735 -0.038377 -0.373173
-0.058980 -0.114134 -0.143644
-0.053333 0.057930 -0.221532
-0.114211 -0.016210 -0.302653
0.056540 -0.116662 -0.366698
-0.050959 -0.116072 0.040254
0.112546 -0.066997 -0.266559
-0.084389 -0.007758 -0.380123
-0.112119 -0.012840 -0.265903
-0.044238 0.077094 -0.352428
-0.074554 0.001703 -0.375454
-0.071000 0.047831 -0.150313
-0.096836 -0.014624 -0.330661
-0.074135 -0.096798 -0.245973
0.033262 -0.136675 -0.257821
-0.107473 0.009591 -0.300068
0.072840 -0.105025 -0.380352
0.118488 -0.086663 -0.241634
-0.052351 -0.108549 0.029908
0.082869 -0.054009 -0.022743
-0.087820 0.030680 -0.341659
-0.064173 0.051623 -0.162205
0.087291 -0.052731 -0.054353
-0.084230 -0.036594 0.043170
0.073682 -0.102669 -0.347689
0.002982 -0.037470 0.255811
-0.104707 -0.025019 -0.113694
-0.052043 0.057366 -0.383074
0.037949 -0.089297 0.015100
-0.011126 -0.137706 -0.287973
0.059909 -0.055731 -0.029253
0.117801 -0.081400 -0.216947
-0.090833 -0.072675 -0.212649
-0.053787 0.046835 -0.220806
-0.072255 0.008248 0.020258
0.049871 -0.104030 -0.137531
0.027466 -0.068460 0.109584
-0.066348 0.046699 -0.132175
0.072140 -0.112495 -0.226329
0.118664 -0.085734 -0.219735
-0.034637 -0.129153 -0.262066
0.039420 -0.106549 -0.080815
-0.021582 -0.122872 -0.195868
-0.022621 -0.032163 0.331131
-0.051942 -0.100674 -0.247373
0.113234 -0.061214 -0.313819
-0.067115 0.041770 -0.087237
-0.065987 0.048245 -0.167983
0.004246 -0.139129 -0.261798
-0.079914 -0.066918 -0.339642
0.039336 -0.112777 -0.200162
-0.103359 -0.025402 -0.306291
-0.089511 -0.023297 -0.052517
-0.033271 -0.116926 -0.356097
0.006470 -0.124806 -0.184535
0.081865 -0.104774 -0.236058
-0.115727 -0.033000 -0.236437
0.125249 -0.040417 -0.251157
-0.098351 -0.018535 -0.383457
-0.092238 0.033811 -0.245004
-0.082103 0.025130 -0.082203
-0.096620 -0.045940 -0.167662
-0.113727 -0.013506 -0.161760
0.061125 -0.059963 -0.037471
-0.072964 -0.025041 0.042879
0.109054 -0.070578 -0.283357
0.007840 -0.120758 -0.113457
-0.012328 -0.045156 0.390340
0.119492 -0.043050 -0.364474
0.105543 -0.053700 -0.394596
0.108869 -0.074811 -0.281221
0.079249 -0.115023 -0.315704
-0.090207 0.010979 -0.328111
-0.003902 -0.138671 -0.283375
0.025858 -0.099713 -0.014093
0.110851 -0.026842 -0.316651
-0.070907 0.044752 -0.390125
-0.014332 -0.097586 0.017760
0.008791 -0.119260 -0.074702
-0.056306 0.055908 -0.381739
-0.002568 -0.138583 -0.288238
-0.012923 -0.136442 -0.311951
-0.051448 -0.086183 0.118886
-0.079549 0.063149 -0.326600
0.026026 -0.111081 -0.236463
-0.033192 0.074398 -0.368975
-0.028453 0.076111 -0.365236
-0.079817 -0.063104 -0.270686
-0.089445 -0.061527 -0.167125
0.092211 -0.062227 -0.353044
0.051805 -0.089152 -0.044007
-0.103099 -0.014593 -0.307049
-0.073581 -0.093596 -0.198220
0.011020 -0.134350 -0.288361
0.115550 -0.087482 -0.192710
0.092771 -0.083228 -0.375045
0.067740 -0.107095 -0.242823
0.031994 -0.118639 -0.112051
-0.083200 -0.080664 -0.188389
-0.043829 -0.116847 -0.105766
-0.114995 0.003654 -0.257653
0.097060 -0.105866 -0.265885
0.095840 -0.076357 -0.148459
0.008756 -0.039025 0.233873
-0.081689 0.021030 -0.078930
0.021058 -0.113649 -0.126458
0.015032 -0.054788 0.206763
-0.011231 -0.047543 0.332598
-0.123588 -0.017095 -0.205421
0.049316 -0.089182 -0.062118
-0.098078 -0.018575 -0.378414
0.040270 -0.089989 0.039069
-0.089917 0.034983 -0.198911
0.104878 -0.068385 -0.309176
-0.096818 -0.077709 -0.118711
0.113101 -0.085245 -0.284445
-0.084305 0.013203 -0.381717
0.008051 -0.037100 0.154434
-0.072378 0.043303 -0.172322
0.057161 -0.072481 -0.027513
-0.020701 -0.043460 0.248905
-0.080835 -0.070001 -0.169432
0.101293 -0.090724 -0.277081
0.015644 -0.088033 0.040818
-0.059328 0.074107 -0.341602
0.113537 -0.054251 -0.178012
0.026563 -0.114085 -0.368315
0.060332 -0.082554 -0.064964
0.069956 -0.116494 -0.320183
-0.063076 -0.124444 -0.122671
-0.082662 0.000505 -0.097482
0.047035 -0.038021 0.110117
-0.076399 -0.001393 0.049204
-0.054721 0.046201 -0.049566
-0.096730 0.033609 -0.217115
-0.119400 0.002483 -0.245766
-0.059975 -0.056436 0.132615
-0.020719 -0.117023 -0.109312
0.007452 -0.090275 0.087518
-0.121056 -0.015184 -0.236882
-0.094541 -0.005304 -0.343346
-0.072008 0.037225 -0.138756
0.116748 -0.056123 -0.308952
0.073796 -0.102444 -0.375604
0.047097 -0.063381 0.051137
0.030959 -0.108346 -0.246263
-0.076333 0.062559 -0.312766
0.047035 -0.111244 -0.135320
0.054562 -0.099586 -0.393583
-0.088384 -0.054841 -0.258111
-0.075730 0.051350 -0.374780
-0.057742 -0.093472 -0.293541
-0.120157 0.006812 -0.238415
-0.028898 -0.042165 0.355228
-0.081456 -0.069807 -0.329785
-0.031073 0.006341 0.140618
-0.052681 0.045796 -0.040294
0.040710 -0.121762 -0.300513
-0.098659 0.028839 -0.176766
-0.056747 -0.086496 -0.254773
0.027660 -0.106998 -0.059370
-0.086983 0.037234 -0.344469
0.017640 -0.114015 -0.384549
-0.057271 -0.113737 -0.229694
-0.086243 -0.079255 0.015783
0.079328 -0.109152 -0.224025
-0.048563 -0.092944 0.090663
-0.076126 0.045007 -0.366896
-0.080799 -0.009000 -0.361545
-0.075466 -0.000896 -0.360576
-0.078011 0.065669 -0.331427
0.014587 -0.131003 -0.104212
-0.107270 -0.032097 -0.136236
-0.078346 -0.071446 -0.264498
0.116876 -0.028155 -0.340408
-0.110014 -0.039681 -0.231491
0.044696 -0.090755 0.025266
-0.083006 0.017594 -0.344174
0.119285 -0.064910 -0.191402
0.120479 -0.052075 -0.392574
-0.000868 -0.117600 -0.125630
0.069832 -0.089605 -0.089289
-0.088027 -0.031233 0.000495
-0.093801 -0.075212 -0.134593
-0.072854 -0.013475 0.001028
-0.088225 0.024342 -0.328582
-0.039636 -0.122123 -0.139610
-0.032395 0.074843 -0.358783
0.003021 -0.040721 0.279428
-0.087344 -0.066522 -0.144257
-0.088723 -0.001200 -0.349464
0.102927 -0.021033 -0.285203
-0.095184 -0.053097 -0.000241
-0.022736 -0.039487 0.245113
-0.043252 0.009715 0.085386
0.027999 -0.067971 0.104056
0.074206 -0.101242 -0.359290
0.001423 -0.039677 0.168766
-0.057954 0.054834 -0.127405
-0.083156 0.057674 -0.327256
-0.019604 -0.041795 0.416983
-0.064300 0.052028 -0.156792
0.009210 -0.108712 -0.386553
-0.097576 -0.061184 -0.147710
-0.072554 -0.078158 -0.311440
-0.117528 -0.000407 -0.180439
0.028756 -0.110086 -0.202008
0.038288 -0.104977 -0.243898
-0.090516 0.025742 -0.321764
0.039539 -0.131487 -0.262586
0.031756 -0.073586 0.092438
-0.083002 -0.046675 -0.298614
-0.089326 -0.033185 -0.352265
-0.058328 0.058375 -0.136117
0.116030 -0.070147 -0.290783
0.128495 -0.069702 -0.233808
-0.097831 0.026253 -0.224889
-0.111718 -0.026296 -0.162870
-0.025145 -0.040456 0.328105
0.047709 -0.113424 -0.278676
0.040811 -0.131425 -0.267471
-0.022278 -0.112843 -0.346464
0.050118 -0.083725 0.046900
0.046929 -0.066257 0.007983
-0.081332 -0.054850 -0.282076
-0.084085 -0.040958 0.046451
0.076686 -0.081660 -0.084048
-0.044793 -0.093882 0.082149
-0.080716 0.039326 -0.382744
-0.008461 -0.061923 0.225108
-0.091436 -0.064645 -0.250470
-0.075422 0.047320 -0.381801
-0.010082 -0.131509 -0.090043
-0.095854 -0.054150 -0.155911
0.104350 -0.039857 -0.174119
-0.117277 -0.009810 -0.246717
-0.051550 0.061797 -0.365883
0.032148 -0.126673 -0.336193
-0.005210 -0.062751 0.216242
0.101553 -0.075485 -0.151260
0.074206 -0.110548 -0.298636
0.084208 -0.104761 -0.245885
-0.036583 -0.133628 -0.174925
-0.033337 -0.086073 0.106787
0.052924 -0.103818 -0.096905
-0.070004 0.041995 -0.241352
0.011645 -0.117869 -0.363606
0.053677 -0.107602 -0.261661
-0.009012 -0.033325 0.234917
-0.069132 -0.114332 -0.009966
-0.041943 -0.090865 0.082162
-0.098391 -0.044152 -0.093518
-0.018089 -0.037893 0.242320
-0.064750 0.028403 -0.010987
-0.081354 0.060410 -0.326931
0.083627 -0.106981 -0.334202
-0.066648 0.082269 -0.277799
0.043538 -0.089729 -0.388324
-0.094136 0.030402 -0.178171
-0.010223 -0.132223 -0.229064
-0.099166 0.017180 -0.279940
-0.046013 -0.100304 0.068138
0.120360 -0.056154 -0.390482
0.052523 -0.057590 0.051137
0.071123 -0.071618 -0.387870
-0.087353 -0.030493 -0.346852
-0.079253 0.042021 -0.185271
-0.103081 -0.070336 -0.112752
0.109816 -0.022354 -0.314043
0.014433 -0.091319 0.008432
0.073695 -0.109461 -0.199189
-0.112066 0.013586 -0.249633
0.045255 -0.071781 0.021103
-0.088450 0.036652 -0.369966
0.113229 -0.083902 -0.207068
-0.010386 -0.123220 -0.183769
0.077064 -0.053352 0.001486
0.001726 -0.127285 -0.080027
-0.090080 0.013159 -0.363545
0.014737 -0.118049 -0.077552
-0.078879 0.039484 -0.227985
0.101077 -0.041773 -0.141522
-0.081632 -0.033083 -0.329815
-0.069722 0.055472 -0.375793
-0.077263 0.044611 -0.190279
-0.073409 0.039735 -0.105956
-0.095959 -0.018606 -0.327552
-0.086340 -0.024327 -0.028477
0.052954 -0.092296 -0.142002
-0.073840 -0.011017 0.059541
-0.105262 0.013066 -0.273699
-0.003964 -0.027807 0.231314
-0.058544 0.073984 -0.290171
0.120880 -0.073666 -0.197009
0.102275 -0.081999 -0.314585
0.087071 -0.075269 -0.114989
-0.064591 0.049733 -0.256129
-0.021467 -0.042949 0.254719
0.052902 -0.056233 0.072926
0.114150 -0.026816 -0.370526
-0.065846 0.068324 -0.263291
-0.036596 -0.137966 -0.161192
-0.091075 -0.037910 0.014638
0.102297 -0.092398 -0.270056
-0.092313 -0.076066 -0.052684
-0.097448 -0.048411 -0.064629
-0.040032 -0.109174 0.042786
-0.116493 0.012472 -0.237710
-0.052400 0.052376 -0.063581
-0.022207 -0.035083 0.410640
-0.077355 0.012053 -0.048394
-0.089864 -0.050833 -0.333515
0.041868 -0.135671 -0.270197
-0.086283 -0.045354 -0.332850
-0.089498 -0.077555 -0.054596
-0.082698 -0.039866 -0.332181
-0.019151 -0.061897 0.174461
-0.094960 -0.022570 -0.319306
-0.084882 -0.027745 -0.326089
0.016486 -0.047772 0.187155
