0.015980150550603867 -0.11478450894355774 0.012957069091498852
-0.0777026042342186 -0.06803462654352188 0.04233582317829132
-0.0737123191356659 -0.10412675887346268 -0.08744446188211441
0.1135970950126648 -0.05675235763192177 0.0023795235902071
-0.11674389243125916 -0.0287519209086895 -0.024597428739070892
-0.1037306934595108 -0.04729320853948593 -0.0008625793270766735
-0.11151033639907837 -0.05079568177461624 0.012098254635930061
-0.0883418619632721 -0.03798491507768631 -0.12642456591129303
-0.08987769484519958 0.06558088958263397 -0.22157424688339233
-0.09924270957708359 0.09506740421056747 -0.025640295818448067
0.11504422873258591 -0.06777122616767883 -0.006919042207300663
-0.11802326142787933 0.0853818878531456 0.4317891299724579
0.07346002012491226 -0.002520877867937088 -0.4057047665119171
0.11043605208396912 -0.06059775501489639 0.013829036615788937
-0.11446260660886765 0.04811490327119827 -0.0035235174000263214
-0.06222940981388092 -0.10703696310520172 0.25279781222343445
0.07010184973478317 -0.08940409868955612 -0.20396560430526733
-0.013420243747532368 -0.10824958980083466 0.020930107682943344
-0.13705000281333923 0.020336952060461044 0.20904968678951263
0.11031237244606018 -0.06353498250246048 -0.00656794011592865
0.11416764557361603 -0.06653106957674026 -0.0057927463203668594
-0.116246297955513 -0.03669699653983116 0.11602648347616196
-0.13361400365829468 -0.02709484100341797 0.28303828835487366
0.11948495358228683 -0.07098624110221863 0.007069235667586327
0.01787206158041954 -0.11834974586963654 -0.04791956767439842
-0.1180034726858139 0.0365823395550251 0.2208934873342514
0.10963235795497894 -0.06971865147352219 0.09528513252735138
-0.09609922766685486 0.08783778548240662 0.08375196903944016
0.048122793436050415 -0.10706251114606857 -0.15191912651062012
-0.04590453952550888 -0.09732656925916672 0.12392444908618927
0.012092649936676025 -0.1135619580745697 -0.04123590141534805
-0.1181967705488205 -0.02323908917605877 0.009780501946806908
-0.046904925256967545 -0.04837591201066971 -0.322181761264801
0.10825182497501373 -0.05861040949821472 0.0037500616163015366
0.08943275362253189 -0.11126548051834106 0.4214543402194977
0.13553592562675476 -0.06333146244287491 0.19919270277023315
-0.0898752212524414 0.11448504775762558 -0.13152168691158295
-0.07317378371953964 -0.08283132314682007 -0.03664605692028999
0.0056127458810806274 -0.10828600823879242 0.10510160028934479
-0.11812128126621246 0.05069471150636673 0.013075800612568855
0.007003279868513346 -0.1172502413392067 0.017623016610741615
-0.12389280647039413 0.03446580097079277 0.11158782988786697
-0.11458706855773926 0.024918312206864357 0.09716930240392685
-0.11723893880844116 0.07497098296880722 0.2872251868247986
-0.10081540048122406 0.0997573584318161 -0.06983217597007751
0.10941427946090698 -0.07070078700780869 -0.08761769533157349
-0.11080477386713028 -0.017742976546287537 0.01365895476192236
-0.12440291047096252 0.05758354067802429 0.010459348559379578
0.1177094578742981 -0.0529450997710228 -0.01225946843624115
0.07489753514528275 -0.09635607898235321 -0.014435091987252235
0.09575622528791428 -0.0849984660744667 0.2066461145877838
0.10018330067396164 -0.07998757809400558 0.2153155505657196
-0.11641675233840942 -0.017763251438736916 0.010065394453704357
0.11402641981840134 -0.06277463585138321 -0.008887537755072117
0.10378491878509521 -0.06439734995365143 0.006040740758180618
-0.12029533088207245 0.024012329056859016 0.005730233155190945
-0.08640138804912567 -0.07948683202266693 -0.0659656748175621
-0.11280497908592224 -0.021390719339251518 0.0609954297542572
-0.04161963611841202 0.13213175535202026 0.09309116005897522
0.03994102403521538 -0.10772289335727692 -0.20483402907848358
-0.08224551379680634 0.12021288275718689 -0.013393588364124298
-0.09305807948112488 0.12370717525482178 0.39746659994125366
-0.08756697922945023 0.06470879167318344 -0.16549889743328094
-0.0728696808218956 0.10119371116161346 -0.17318111658096313
-0.11019525676965714 0.026481956243515015 0.00980244018137455
-0.07530490309000015 0.12438274174928665 0.25823527574539185
0.10149425268173218 -0.061248380690813065 0.023000238463282585
-0.0649336650967598 0.09062106162309647 -0.2143430858850479
-0.05215267091989517 0.11144058406352997 -0.15628638863563538
0.14962467551231384 -0.051692187786102295 -0.2827332317829132
0.1328275054693222 -0.0492774173617363 -0.3653761148452759
0.10709766298532486 -0.060400232672691345 0.0019179884111508727
0.07290642708539963 -0.09570321440696716 0.03082861378788948
-0.07814429700374603 -0.08092576265335083 0.3182952404022217
0.0012765079736709595 -0.0546274408698082 -0.3662762939929962
-0.10006126761436462 0.08204659819602966 0.2024267464876175
0.010697836056351662 -0.11460261791944504 0.019022058695554733
-0.09379427880048752 0.024148302152752876 0.11403141915798187
0.035266805440187454 -0.06989650428295135 -0.2878342866897583
0.06772836297750473 -0.10718031972646713 0.041926782578229904
-0.12238463014364243 -0.0033432934433221817 0.09513554722070694
-0.07055119425058365 0.046873677521944046 -0.3973442316055298
-0.022922085598111153 -0.11668749153614044 0.03663019835948944
-0.011944994330406189 -0.10406995564699173 0.02255622297525406
-0.042907312512397766 0.13505277037620544 0.2809412479400635
-0.041010528802871704 -0.10497423261404037 0.3057895004749298
0.1067550778388977 -0.062143344432115555 -0.009935220703482628
0.11635395884513855 -0.05121443793177605 -0.01823374442756176
0.08784764260053635 -0.08896443992853165 -0.023698437958955765
0.11356118321418762 -0.07889402657747269 -0.12125095725059509
-0.06647738814353943 0.09979405999183655 -0.1514241099357605
0.013239491730928421 -0.10981965065002441 -0.025237873196601868
0.11265875399112701 -0.05824963375926018 0.017368944361805916
0.03514593839645386 -0.11498221009969711 0.1114535927772522
-0.11180602014064789 -0.02594553306698799 0.012634150683879852
-0.0730050802230835 0.12647618353366852 -0.11512730270624161
0.09668534249067307 -0.07793695479631424 -0.01670530065894127
-0.08485859632492065 -0.07582900673151016 0.3579673767089844
-0.030119558796286583 -0.11192916333675385 0.03366492688655853
-0.09826096892356873 -0.05317793786525726 -0.12174265086650848
-0.09767865389585495 0.07041461765766144 0.08541281521320343
0.11010079085826874 -0.061162132769823074 0.0024420153349637985
0.10665763169527054 -0.09875396639108658 -0.27115005254745483
0.09686798602342606 -0.07852198928594589 -0.10869177430868149
-0.09001129865646362 -0.051399268209934235 0.10661620646715164
-0.11619298905134201 0.05834725499153137 -0.06060020625591278
-0.07329585403203964 -0.08374154567718506 0.2117140293121338
0.10496671497821808 -0.06630074232816696 0.006037406623363495
-0.09241200983524323 0.12129387259483337 0.24509283900260925
0.04910506308078766 -0.03399135172367096 -0.4148934781551361
-0.07969626784324646 -0.09285029768943787 0.0776417925953865
0.05901355296373367 -0.11306476593017578 0.3830956220626831
0.11322000622749329 -0.06083359196782112 -0.00524852704256773
0.10634371638298035 -0.06277406215667725 0.0013744048774242401
-0.08377738296985626 -0.06338214129209518 0.05157482251524925
0.10709534585475922 -0.0656205415725708 -0.0064234863966703415
0.11567550152540207 -0.054747141897678375 -0.01204698160290718
0.11101366579532623 -0.07226310670375824 -0.003143133595585823
-0.04906809329986572 -0.10662218928337097 0.36096900701522827
-0.11791307479143143 0.026183566078543663 0.011043619364500046
-0.11832676827907562 0.06293199956417084 0.2778320610523224
0.09152041375637054 -0.09695569425821304 0.21642155945301056
0.09404636919498444 -0.07464577257633209 0.09402744472026825
0.06289313733577728 -0.10235925018787384 0.14362981915473938
0.027171198278665543 -0.12182222306728363 -0.011570461094379425
0.09556345641613007 -0.07850465178489685 0.261470228433609
0.027369286864995956 -0.09971482306718826 0.11037874966859818
0.06668788194656372 -0.10246821492910385 0.04143033176660538
0.07621252536773682 -0.09275542199611664 0.12151089310646057
-0.10213673114776611 0.013583904132246971 -0.14294108748435974
-0.09387470781803131 -0.07243737578392029 0.2843659818172455
-0.11662930250167847 0.027138734236359596 0.021183975040912628
-0.09079235047101974 0.06243431568145752 -0.20167352259159088
-0.10078427195549011 -0.03130491077899933 0.23671892285346985
-0.12109427154064178 0.04576902836561203 -0.019964497536420822
-0.08197914063930511 0.10935943573713303 -0.10249194502830505
-0.12013482302427292 0.01747535541653633 0.00947980210185051
-0.08855609595775604 0.008403468877077103 0.050394896417856216
-0.01841997727751732 -0.08956825733184814 -0.1573793590068817
0.11068090051412582 -0.06482590734958649 0.0039162528701126575
-0.1144486591219902 -0.01948440447449684 0.012925196439027786
0.06039930880069733 -0.11655507981777191 -0.16171883046627045
0.0736987516283989 -0.08897698670625687 0.17251910269260406
-0.12508924305438995 0.057781197130680084 -0.015065368264913559
-0.08260323107242584 0.0196174718439579 -0.11616957187652588
0.0014347340911626816 -0.11841107904911041 -0.04106278717517853
-0.1244378536939621 -0.006726667284965515 -0.021200694143772125
0.11324754357337952 -0.06162957847118378 -0.00649198517203331
-0.12170955538749695 0.025741083547472954 0.10106945037841797
-0.06207382678985596 -0.09389705210924149 -0.09857011586427689
-0.1229843869805336 0.05633553862571716 0.07718229293823242
0.10761888325214386 -0.060374967753887177 -0.004097566939890385
0.020088614895939827 -0.1233925148844719 0.3954737186431885
0.04600396007299423 -0.10630887746810913 -0.03780747950077057
-0.052134156227111816 0.06391452252864838 -0.32780253887176514
0.020061645656824112 -0.12457509338855743 0.015346419997513294
0.06736096739768982 -0.10940311849117279 0.0399840846657753
-0.1169063076376915 -0.015634112060070038 0.06732320785522461
0.06899100542068481 -0.10135160386562347 -0.03091789036989212
-0.015727151185274124 -0.1125861406326294 0.3517248332500458
-0.11067201942205429 -0.04428945854306221 0.01879269629716873
0.030245181173086166 -0.1308465301990509 0.43811583518981934
-0.12321899831295013 0.01236862875521183 0.01899852231144905
-0.11382531374692917 -0.04079870879650116 0.12808164954185486
0.009479526430368423 -0.09729526937007904 -0.21597710251808167
-0.04899238049983978 0.12107892334461212 -0.2909832000732422
-0.118675597012043 0.02326269820332527 0.010575665161013603
-0.03684975951910019 0.12491615861654282 -0.35408756136894226
0.053590789437294006 -0.07655108720064163 -0.404466837644577
0.10229560732841492 -0.06918135285377502 0.12815403938293457
0.020345769822597504 -0.12274762988090515 -0.053694210946559906
-0.12370777875185013 0.04315849021077156 -0.1640760451555252
0.05899785831570625 -0.09815840423107147 -0.015087624080479145
0.11341575533151627 -0.06080269813537598 -0.00639074482023716
0.10375045984983444 -0.08336864411830902 0.12634482979774475
-0.11763440817594528 -0.013101993128657341 0.06915324926376343
0.04043963551521301 -0.11876532435417175 -0.13400712609291077
0.07748904079198837 -0.08453021198511124 -0.02376548945903778
0.10198376327753067 -0.06819789111614227 -0.003382056951522827
-0.1311958283185959 0.025958973914384842 0.04971638321876526
0.10406740009784698 -0.0704086497426033 -0.0009572524577379227
-0.11267651617527008 0.072257861495018 0.23193791508674622
-0.11864076554775238 0.05444197356700897 0.21493010222911835
0.06763364374637604 -0.08526965975761414 -0.03461385518312454
0.14568763971328735 -0.08470343053340912 0.3600095808506012
-0.12341799587011337 0.024105455726385117 0.00771384546533227
-0.12177366763353348 -0.016156215220689774 0.08359380066394806
0.03141476586461067 -0.11492010951042175 0.3435359597206116
-0.12748022377490997 0.01421990804374218 0.11677590012550354
-0.11940846592187881 0.05048990994691849 -0.08780980110168457
0.10623610019683838 -0.06018923223018646 -0.00037388876080513
0.08545330166816711 -0.09695502370595932 0.34665319323539734
-0.08162310719490051 0.08427586406469345 0.08640684187412262
-0.08383525907993317 0.11452134698629379 0.2739313840866089
-0.13181743025779724 0.039307739585638046 -0.04724184423685074
-0.03757701814174652 -0.10297716408967972 -0.20912139117717743
-0.07053311169147491 -0.07878552377223969 0.1833760142326355
0.052458059042692184 -0.09643372893333435 0.006351403426378965
0.10982143133878708 -0.06545083224773407 0.0011530835181474686
-0.025958161801099777 -0.11409381031990051 -0.0642288401722908
-0.050566915422677994 -0.09905873984098434 -0.18364331126213074
0.10656622797250748 -0.08771175146102905 -0.004396025091409683
-0.015160609968006611 -0.12025390565395355 -0.04806114733219147
-0.12215369194746017 0.06855838000774384 0.008394187316298485
-0.11584433168172836 -0.020848769694566727 -0.08154270052909851
0.11476124078035355 -0.07564173638820648 -0.1052502989768982
0.07652370631694794 -0.08995229005813599 0.14550963044166565
0.035086583346128464 -0.11933663487434387 -0.10642234981060028
0.11098930239677429 -0.06643348932266235 0.0032820962369441986
-0.0023243585601449013 -0.113011434674263 0.025412868708372116
0.051336295902729034 -0.10113444179296494 0.00741671584546566
0.11563054472208023 -0.06661946326494217 0.0125855952501297
-0.12271272391080856 0.032287050038576126 -0.016046281903982162
0.07467756420373917 -0.09772063046693802 -0.01857098937034607
-0.0688834935426712 0.08853617310523987 -0.039478790014982224
-0.13117702305316925 0.02513681910932064 -0.0025450875982642174
-0.00721877533942461 -0.11080777645111084 0.035824280232191086
-0.021810205653309822 -0.10936464369297028 0.20987176895141602
-0.06111963465809822 0.13155190646648407 0.17154963314533234
-0.11782477051019669 0.05029294639825821 0.009795961901545525
0.06156911700963974 -0.10230623185634613 0.05525071546435356
0.050688181072473526 -0.09642154723405838 -0.0032633058726787567
-0.08477884531021118 -0.06131443381309509 -0.03403030335903168
-0.12412361800670624 0.02218376286327839 0.0049881222657859325
-0.10507792234420776 -0.009489601477980614 0.052456341683864594
0.08872848749160767 -0.09579340368509293 0.13481006026268005
-0.05413432791829109 -0.09910759329795837 0.12207268923521042
-0.08616509288549423 -0.02606656588613987 -0.13963152468204498
-0.07062814384698868 0.10508885979652405 0.14649726450443268
-0.028657197952270508 -0.10293243080377579 0.14623257517814636
-0.11310525238513947 0.07215713709592819 0.023717829957604408
-0.11113400012254715 -0.01783056929707527 0.06831777095794678
-0.12410406023263931 0.01682078279554844 0.004843941889703274
-0.12020163238048553 0.026660194620490074 0.09759756922721863
0.04425971955060959 -0.10927018523216248 -0.04218721389770508
-0.12584102153778076 -0.016839316114783287 0.17259448766708374
0.10426672548055649 -0.06552029401063919 0.03723935782909393
-0.06858398020267487 0.10493266582489014 -0.2350413054227829
-0.09830330312252045 -0.04162100702524185 -0.008942140266299248
0.10724124312400818 -0.0626780092716217 -0.006593846715986729
0.14116516709327698 -0.036792173981666565 -0.09289442002773285
-0.09635329991579056 -0.031134050339460373 -0.19119182229042053
-0.08289559185504913 -0.0782761350274086 -0.11052076518535614
-0.03550763428211212 0.09588054567575455 -0.3982531726360321
-0.06914646178483963 0.11459188908338547 0.024365173652768135
0.04546627402305603 -0.10224924236536026 0.014754989184439182
-0.08132466673851013 -0.07346601784229279 -0.0468938834965229
0.10004913806915283 -0.08922985196113586 0.31796994805336
-0.05813603103160858 0.10645850002765656 -0.29934385418891907
0.03939039260149002 -0.11739863455295563 -0.04743906483054161
-0.08148244768381119 -0.08458466082811356 -0.18894857168197632
0.03896939381957054 -0.11339699476957321 0.2636384963989258
-0.08814140409231186 -0.06413175165653229 -0.036378324031829834
0.11777301132678986 -0.06295234709978104 0.0035104360431432724
0.023658698424696922 -0.11779062449932098 0.307799369096756
0.11924488097429276 -0.08645500987768173 0.23954065144062042
-0.08086888492107391 -0.08425378054380417 0.004142408259212971
0.10406187921762466 -0.06783401966094971 0.004946671426296234
-0.08405537158250809 -0.06715215742588043 -0.035043440759181976
-0.09050764888525009 -0.054712358862161636 0.0681910440325737
0.10536377131938934 -0.0643690973520279 0.09410595148801804
0.10524694621562958 -0.0647452175617218 -0.0008731894195079803
-0.10707813501358032 0.034342650324106216 0.1590476930141449
0.0779917910695076 -0.0969841405749321 -0.03741864860057831
0.10731147229671478 -0.06850388646125793 -0.004373813048005104
-0.09710946679115295 0.09051880240440369 0.20496386289596558
0.02193802036345005 -0.122072733938694 -0.10588790476322174
0.02435656264424324 -0.11321252584457397 0.04471151530742645
0.02488299272954464 -0.1359027922153473 -0.12601499259471893
0.016112761572003365 -0.11915643513202667 0.1487269103527069
0.08894587308168411 -0.09035301953554153 -0.12213055044412613
0.10223457962274551 -0.07564438879489899 0.011064110323786736
0.009050783701241016 -0.11300648748874664 0.22642779350280762
-0.12725836038589478 0.016781311482191086 -0.04083405062556267
0.10229597240686417 -0.05867599695920944 -0.010460231453180313
0.11247818917036057 -0.0632813423871994 -0.006280167028307915
0.08740470558404922 -0.10082726925611496 0.31872403621673584
-0.012181785888969898 -0.10718055069446564 0.035735879093408585
0.051866959780454636 -0.08193600177764893 -0.18815134465694427
0.09445668756961823 -0.08752050250768661 -0.09440052509307861
-0.1183733195066452 0.027697578072547913 0.09020760655403137
0.08129531890153885 -0.08791263401508331 -0.025347288697957993
-0.008261121809482574 -0.11481089144945145 -0.1059454157948494
-0.12459494173526764 0.021843399852514267 0.09674856066703796
0.10798154026269913 -0.06250357627868652 -0.01448509469628334
-0.05316762253642082 -0.0720769539475441 0.07272122800350189
0.13309186697006226 -0.04330316185951233 -0.16286702454090118
-0.022303711622953415 -0.09527867287397385 0.010855374857783318
0.08779069036245346 -0.09737720340490341 -0.1110912337899208
-0.06068892776966095 -0.09392529726028442 -0.10237768292427063
0.004643375054001808 -0.08606772124767303 -0.3079364001750946
-0.11075440049171448 -0.02397538535296917 0.06744570285081863
-0.0892874002456665 -0.06287097185850143 -0.029185637831687927
0.018695000559091568 -0.11411381512880325 -0.008182656019926071
0.10493513941764832 -0.10117816925048828 -0.3052237331867218
-0.11025239527225494 -0.024162419140338898 0.13256263732910156
-0.10876236855983734 -0.026260463520884514 0.014186528511345387
0.06931409239768982 -0.11812172830104828 -0.06640711426734924
-0.08626618981361389 0.03367604315280914 -0.13233689963817596
-0.06480541825294495 -0.0362834632396698 -0.34998124837875366
-0.11258115619421005 0.0560113787651062 0.007433594204485416
-0.024311959743499756 -0.07356476038694382 -0.2698148787021637
-0.07182033360004425 -0.08112514764070511 -0.02848268672823906
-0.07837918400764465 0.0541839562356472 -0.289654016494751
0.05516880378127098 -0.02761642076075077 -0.5199025273323059
-0.03502652049064636 0.12632347643375397 -0.14976155757904053
-0.08491277694702148 -0.06054773926734924 -0.03206596150994301
-0.012316107749938965 -0.030624691396951675 -0.40814095735549927
0.06536383926868439 -0.09795179963111877 0.06747353076934814
0.059215717017650604 -0.10933120548725128 -0.009888807311654091
0.0876183807849884 -0.07879354804754257 -0.02401081472635269
0.11668838560581207 -0.06676643341779709 0.0018450729548931122
-0.004964164923876524 -0.06855711340904236 -0.2245866358280182
-0.042277172207832336 -0.10894465446472168 -0.03578474372625351
-0.13796015083789825 0.005157383158802986 0.41927048563957214
-0.029149254783988 -0.10067597031593323 0.04260741174221039
0.02400130033493042 -0.11291645467281342 0.22709085047245026
-0.10291548073291779 0.096910260617733 0.11955256760120392
-0.09163122624158859 -0.046749550849199295 -0.01944739930331707
-0.09257461130619049 -0.0544600635766983 0.02019025757908821
0.10887265205383301 -0.06265230476856232 -0.0024566631764173508
-0.07822460681200027 -0.03873153030872345 -0.3069607615470886
0.11507240682840347 -0.06292758882045746 -0.007120727561414242
-0.014239184558391571 -0.1111658439040184 0.30047398805618286
0.10373327881097794 -0.06450477987527847 0.0023567406460642815
-0.07274500280618668 -0.08876055479049683 0.11896980553865433
0.10660668462514877 -0.07114510238170624 -0.04406849294900894
-0.03390908241271973 -0.10315140336751938 -0.14235907793045044
-0.11621107161045074 -0.015993526205420494 -0.16893605887889862
-0.1154099628329277 0.021900614723563194 0.009530090726912022
-0.08303870260715485 -0.06717836856842041 -0.03556472808122635
-0.13638237118721008 0.056409019976854324 -0.053121015429496765
0.03752707690000534 -0.10063794255256653 0.10294850170612335
-0.09834161400794983 -0.04389067739248276 -0.012232353910803795
-0.041925959289073944 0.1153365820646286 -0.21783015131950378
0.0583188459277153 -0.108428455889225 0.2951646149158478
0.1099138930439949 -0.06589586287736893 0.006121795624494553
0.10788795351982117 -0.06132912635803223 -0.0647069439291954
0.10811026394367218 -0.07047111541032791 -0.005053995177149773
-0.07976352423429489 -0.06299462914466858 -0.22902381420135498
0.09958594292402267 -0.06625540554523468 -0.00564183434471488
-0.1176665872335434 -0.010468174703419209 0.07773818075656891
0.09781378507614136 -0.06660047173500061 0.0287189744412899
-0.07755444943904877 -0.062184952199459076 -0.025985978543758392
-0.07170411199331284 -0.04697347432374954 -0.31918415427207947
-0.12201790511608124 0.0664387196302414 0.01333268266171217
-0.12077447772026062 0.0521053820848465 0.1291179358959198
-0.13036613166332245 0.02971179410815239 0.09211370348930359
0.06423892080783844 -0.0957384780049324 -0.006462574936449528
0.02321426011621952 -0.12127610296010971 -0.04234863072633743
0.02064998261630535 -0.11282557249069214 0.24225637316703796
0.11241118609905243 -0.05960293114185333 0.003549596294760704
-0.07200638949871063 0.07369758933782578 0.011997440829873085
0.026104295626282692 -0.1065208837389946 0.09078603237867355
-0.12395840138196945 0.06482382118701935 -0.11631400138139725
0.019533798098564148 -0.11311747133731842 -0.044250138103961945
-0.13604271411895752 -0.01336689107120037 -0.14810413122177124
-0.11528855562210083 0.055550187826156616 0.010063760913908482
-0.08993373811244965 -0.05394229665398598 -0.03605160117149353
-0.09508608281612396 0.09468850493431091 -0.10865651071071625
-0.11814381182193756 -0.017539791762828827 -0.06026364490389824
0.09398508071899414 -0.08127040416002274 -0.029121680185198784
0.11498986929655075 -0.05963149294257164 -0.009805174544453621
0.10923604667186737 -0.06057269126176834 0.005327323917299509
0.11229322105646133 -0.06413611769676208 -0.12671011686325073
0.026762980967760086 -0.12161655724048615 -0.011419733986258507
0.08777293562889099 -0.0952560305595398 0.20230767130851746
-0.0820767730474472 0.04631586745381355 0.00996536947786808
-0.107180155813694 -0.03389523923397064 0.05312115699052811
-0.08719109743833542 0.07919838279485703 0.09239734709262848
0.016460226848721504 -0.11355191469192505 -0.03267254680395126
0.10597353428602219 -0.06327573955059052 0.0074583240784704685
-0.12119393050670624 -0.016821419820189476 0.0027752015739679337
0.1071917861700058 -0.06177293509244919 0.0018771607428789139
0.03831943869590759 -0.11111968755722046 0.05421377718448639
-0.11925363540649414 0.022406477481126785 0.003761633299291134
-0.1196068525314331 0.01849725842475891 0.008455939590930939
-0.12005532532930374 0.025800786912441254 0.0057358089834451675
0.0865766853094101 -0.09387004375457764 0.18887829780578613
0.07807867228984833 -0.10128049552440643 -0.032419346272945404
0.03205639123916626 -0.11466558277606964 -0.03471842780709267
0.09078731387853622 -0.08107507228851318 -0.017129309475421906
0.04412243142724037 -0.11142178624868393 0.02164185233414173
-0.112795390188694 -0.015485119074583054 0.06350795179605484
-0.042945537716150284 -0.11559899896383286 0.42640677094459534
0.026087813079357147 -0.08294768631458282 -0.32793959975242615
0.07521229982376099 -0.0992245227098465 0.03670705854892731
-0.12725357711315155 0.02835847996175289 0.3772260546684265
0.10905669629573822 -0.06272852420806885 0.08591606467962265
-0.11563003808259964 0.07914464920759201 0.2022506445646286
-0.08002062141895294 -0.029860567301511765 -0.2600012719631195
-0.06486357748508453 -0.04987005144357681 -0.15587836503982544
-0.09154684841632843 0.06139087677001953 -0.30119696259498596
-0.11025255918502808 0.014277593232691288 0.0927460789680481
0.13044686615467072 -0.05780554190278053 -0.09419413655996323
0.005810212809592485 -0.11052198708057404 0.012818017974495888
-0.11184273660182953 0.016677837818861008 0.09335974603891373
0.04210896044969559 -0.06556147336959839 -0.40524497628211975
-0.08405321091413498 -0.0681949183344841 -0.030230797827243805
-0.11434563994407654 0.05912012979388237 0.008833179250359535
-0.10245949774980545 -0.020312253385782242 0.061108462512493134
0.10389260202646255 -0.05573137849569321 0.00023337174206972122
-0.11143559962511063 -0.024000780656933784 0.016708090901374817
-0.04453383386135101 0.12511758506298065 0.12460699677467346
-0.11306078732013702 0.017551811411976814 0.010367725044488907
-0.10070157796144485 0.07447759807109833 0.008993323892354965
-0.12250084429979324 0.03254808485507965 0.10264050960540771
-0.005027445033192635 -0.1149723082780838 0.02171872742474079
-0.12171215564012527 -0.004250958561897278 0.032152071595191956
0.11004392802715302 -0.07588472217321396 -0.09566941112279892
0.018299981951713562 -0.12137351930141449 0.06596377491950989
0.10478033125400543 -0.0663495883345604 -0.007200784981250763
0.10883595794439316 -0.06141307204961777 -0.0007171984761953354
-0.09670466929674149 0.03401657193899155 -0.1937609612941742
-0.08994095027446747 0.007767091505229473 -0.2339557409286499
0.08469279110431671 -0.10785242915153503 -0.0377686582505703
-0.0559639036655426 -0.08388795703649521 -0.2625424563884735
0.053130194544792175 -0.10923195630311966 0.1078205481171608
0.10621166229248047 -0.057795047760009766 -0.0031549418345093727
0.06432119756937027 -0.09671219438314438 -0.007593238726258278
-0.049073733389377594 0.14461925625801086 0.2180740088224411
0.11325022578239441 -0.07342283427715302 -0.1037580743432045
0.1057802140712738 -0.06918148696422577 0.004410993307828903
0.11105331778526306 -0.0649515688419342 -0.007058601826429367
0.07974988967180252 -0.05231062322854996 -0.343861848115921
0.11118486523628235 -0.057537395507097244 -0.0012006442993879318
-0.020270178094506264 -0.11556540429592133 0.09717758744955063
-0.04952050745487213 -0.10177876800298691 -0.04781847447156906
0.0667729377746582 -0.09655170142650604 0.09590080380439758
0.10207691788673401 -0.08636586368083954 0.3622056543827057
-0.033768486231565475 0.13530078530311584 0.02468557469546795
0.025733942165970802 -0.1210675835609436 -0.11842522025108337
-0.11670050024986267 0.015249977819621563 0.013920163735747337
-0.11020519584417343 0.0728231891989708 0.14586636424064636
0.07642342895269394 -0.10129103064537048 -0.054785922169685364
0.09503012895584106 -0.08766894042491913 -0.15856364369392395
-0.07741006463766098 -0.07256961613893509 0.12152775377035141
0.00903112068772316 -0.11785626411437988 0.021988512948155403
-0.12674987316131592 0.026879189535975456 0.10420688986778259
0.07944755256175995 -0.09015736728906631 0.3049599528312683
-0.12076279520988464 -0.006100811064243317 -0.06253395974636078
-0.06621559709310532 0.11970435082912445 0.07460439950227737
-0.037045400589704514 -0.06467655301094055 -0.34708371758461
0.06890801340341568 -0.10186605155467987 -0.002925865352153778
0.13150013983249664 -0.041229117661714554 0.02743968367576599
-0.08977288752794266 -0.06294804811477661 0.038163259625434875
-0.12203386425971985 0.02023441344499588 0.01306978240609169
-0.12174457311630249 0.06433549523353577 -0.022443240508437157
-0.05002239719033241 0.1382080763578415 -0.09421036392450333
-0.0819333866238594 -0.09265124052762985 0.17401325702667236
-0.090852752327919 0.09331680089235306 0.18074288964271545
0.013760799542069435 -0.11170549690723419 -0.006545461714267731
0.10529586672782898 -0.0631040707230568 0.00837806798517704
-0.11954628676176071 -0.014154916629195213 -0.006242683622986078
-0.07032297551631927 0.13519926369190216 0.3459109663963318
-0.11538048088550568 0.0959557592868805 0.20014823973178864
-0.11835189163684845 -0.01458902470767498 0.07828694581985474
-0.08318427950143814 -0.06969206780195236 -0.09594897925853729
-0.11344189941883087 0.07758571207523346 0.2941965162754059
-0.1066754013299942 0.07600374519824982 0.1449093222618103
-0.11298057436943054 0.007200935855507851 0.08876816183328629
-0.11153949797153473 -0.007748741656541824 0.06051195040345192
-0.10107215493917465 -0.07512867450714111 0.14880149066448212
0.08108129352331161 -0.04186553135514259 -0.29851034283638
-0.08349347859621048 -0.07239121943712234 -0.04401194304227829
0.07063926011323929 -0.10583385080099106 0.3331575393676758
-0.09742347151041031 0.09536485373973846 0.24500995874404907
-0.1180574968457222 0.019768375903367996 0.08593244105577469
-0.0578506663441658 -0.04762285202741623 -0.23239077627658844
-0.10853446274995804 -0.02167714387178421 0.05617543309926987
-0.03379451483488083 -0.10934636741876602 0.03283770754933357
-0.10611387342214584 -0.037102848291397095 0.004753050394356251
0.02524171955883503 -0.11658607423305511 -0.02041097730398178
0.10763061791658401 -0.07567699253559113 -0.014433100819587708
-0.08826670050621033 -0.05796303600072861 -0.028713412582874298
-0.11059731990098953 0.0640384778380394 0.17565584182739258
0.08409520983695984 -0.09791966527700424 0.1264246255159378
-0.08703332394361496 0.0353243425488472 -0.35901373624801636
0.0644834116101265 -0.09758716076612473 -0.001470679882913828
-0.11987780034542084 0.019931521266698837 -0.0013973526656627655
-0.001306129153817892 -0.07980465888977051 0.02531561441719532
0.11226173490285873 -0.062365997582674026 0.3167766034603119
0.013260891661047935 -0.102628692984581 -0.2517661154270172
-0.051553867757320404 -0.08950977027416229 0.25317877531051636
-0.11294436454772949 -0.025505729019641876 0.010405207052826881
-0.12621840834617615 0.03914668411016464 0.10245278477668762
-0.07279777526855469 -0.08812660723924637 -0.12441613525152206
0.007008631248027086 -0.11691199243068695 0.019335035234689713
-0.1030106246471405 -0.07173677533864975 -0.10686029493808746
-0.0902688279747963 -0.058590494096279144 0.054228901863098145
-0.11675406247377396 0.04693014919757843 0.06347434967756271
-0.0344933345913887 0.12560173869132996 -0.041140563786029816
-0.01714039221405983 -0.10551174730062485 0.033329058438539505
0.07936572283506393 -0.09216894209384918 -0.03453117609024048
0.09498371928930283 -0.051368385553359985 -0.39697006344795227
-0.11661343276500702 0.06076580286026001 0.014791471883654594
0.11226360499858856 -0.07012973725795746 -0.09624022990465164
0.012850603088736534 -0.11584407836198807 -0.04253382235765457
-0.11582823097705841 0.056662119925022125 -0.002731617307290435
0.0013359226286411285 -0.09542820602655411 0.10584971308708191
0.08646799623966217 -0.07751349359750748 -0.1497797667980194
-0.10051494836807251 0.07817872613668442 0.12018795311450958
-0.02617587335407734 -0.11953552067279816 0.14387059211730957
-0.10660102963447571 -0.03235749900341034 -0.05505286157131195
-0.1338004320859909 0.07387339323759079 0.3995853364467621
-0.08265465497970581 0.008172394707798958 0.0036336174234747887
0.055111125111579895 -0.09735642373561859 0.0027694469317793846
0.04883342236280441 -0.11351402848958969 0.3374090790748596
-0.0010592378675937653 -0.020416423678398132 -0.4686388671398163
0.10853879153728485 -0.0644000768661499 0.0007681995630264282
0.00356384739279747 -0.12682923674583435 -0.07026590406894684
0.013272332027554512 -0.11308813095092773 -0.03773248940706253
-0.10957730561494827 0.05203346163034439 0.004480754025280476
0.08445294201374054 -0.07852813601493835 -0.01788470521569252
-0.11488352715969086 -0.016798976808786392 0.0664924830198288
0.09885329753160477 -0.06279875338077545 0.0033236173912882805
-0.059695977717638016 0.1274358183145523 0.19451269507408142
0.10669787228107452 -0.06432551145553589 -0.004567021504044533
-0.09053581953048706 -0.06743872910737991 0.05615093186497688
0.09569702297449112 -0.09220641851425171 -0.048580341041088104
0.05712848901748657 -0.11276662349700928 0.02403073199093342
-0.11083092540502548 0.005866365972906351 0.00866358820348978
-0.06623546779155731 0.10492663085460663 0.07244185358285904
0.04026687890291214 -0.1094406321644783 -0.1339758336544037
-0.05402949079871178 0.14261579513549805 0.3166336715221405
-0.10829827934503555 -0.047942981123924255 -0.06483753025531769
0.010275211185216904 -0.11300297826528549 0.026370234787464142
0.026324957609176636 -0.12011540681123734 -0.007986066862940788
0.14672008156776428 -0.06693701446056366 0.3097865879535675
-0.12176921218633652 -0.03931254521012306 0.032372068613767624
-0.11664552986621857 0.06067589297890663 0.020464446395635605
0.07682585716247559 -0.09799754619598389 0.040743205696344376
0.06260119378566742 -0.10602384805679321 0.054379016160964966
0.062338974326848984 -0.10073836892843246 0.04347267374396324
0.09217210859060287 -0.07758935540914536 -0.013289258815348148
0.01197474543005228 -0.10555428266525269 0.0006795600056648254
-0.042242877185344696 -0.11098229140043259 -0.1705351173877716
-0.12169039249420166 0.07033903151750565 0.34103548526763916
-0.022862525656819344 -0.11344415694475174 0.2571778893470764
0.08093087375164032 -0.07883484661579132 0.046135637909173965
-0.09339350461959839 0.08823320269584656 0.3695161044597626
-0.11774386465549469 0.01460369024425745 0.007433159276843071
0.10311286896467209 -0.10411909222602844 -0.14891570806503296
0.051041845232248306 -0.11161381006240845 0.22700220346450806
-0.08477973937988281 -0.07480677217245102 -0.08912806212902069
-0.11566375195980072 -0.02508387342095375 0.019610214978456497
-0.04863095283508301 -0.08336994796991348 0.0704687312245369
0.02831120789051056 -0.12136831879615784 0.05798117816448212
-0.1143656075000763 -0.022690575569868088 0.01954994723200798
-0.0945027768611908 0.09950657188892365 0.035422973334789276
-0.07663103193044662 0.010944710113108158 -0.35345032811164856
0.11255326867103577 -0.06433548033237457 0.0006887856870889664
0.10943935066461563 -0.05636901035904884 0.005337046459317207
0.10257745534181595 -0.06796078383922577 -0.04333162307739258
-0.11737599223852158 -0.02196820080280304 0.03222149983048439
-0.06076774001121521 0.13113465905189514 0.13930682837963104
-0.13705463707447052 0.05260952189564705 0.32806169986724854
0.06807932257652283 -0.11095546185970306 -0.06953161209821701
-0.10666592419147491 0.0858420729637146 -0.16819389164447784
0.10006867349147797 -0.06926868855953217 -0.0031971968710422516
-0.11702848970890045 0.02262495458126068 0.007377704605460167
-0.09093423932790756 -0.0457368865609169 -0.016220062971115112
0.0834098607301712 -0.08550909161567688 -0.022095143795013428
-0.1019664779305458 -0.0644591748714447 0.07081987708806992
0.06271062046289444 -0.10658612102270126 0.13295471668243408
-0.07910862565040588 0.10529947280883789 0.145675927400589
-0.10704031586647034 -0.02231711335480213 0.06572683155536652
-0.10203132033348083 0.09347639977931976 0.20457994937896729
-0.07150101661682129 0.09599807113409042 0.07877517491579056
-0.06850438565015793 -0.02963978797197342 -0.21286006271839142
-0.0538678877055645 0.12253891676664352 -0.0997789204120636
-0.11194902658462524 0.028970642015337944 0.09309496730566025
-0.044176653027534485 -0.11912549287080765 -0.06068972870707512
-0.059385959059000015 0.125660240650177 -0.002867257222533226
-0.0051601119339466095 -0.1105186939239502 0.0337761715054512
-0.08505575358867645 -0.07165329903364182 -0.027103569358587265
0.00954029057174921 -0.10915309190750122 0.016202658414840698
-0.12567290663719177 0.02871853858232498 0.0026438310742378235
0.08858960121870041 -0.09251463413238525 0.1420566588640213
0.07166576385498047 -0.11312028020620346 -0.039172448217868805
0.03024480678141117 -0.1230253353714943 -0.0068507930263876915
-0.019909832626581192 -0.11149543523788452 0.05657514929771423
-0.088370181620121 -0.04967496171593666 0.00907951220870018
0.027573585510253906 -0.11416202783584595 -0.046295929700136185
-0.12149317562580109 0.02345062419772148 0.09414880722761154
0.0895576998591423 -0.07457840442657471 -0.36503687500953674
0.10889245569705963 -0.062088921666145325 -0.015552978031337261
-0.013334840536117554 -0.12879812717437744 0.0033613983541727066
-0.0225854329764843 -0.12797871232032776 0.18124820291996002
-0.10154019296169281 0.10139165818691254 0.32294750213623047
0.10452410578727722 -0.0627782940864563 -0.0021151567343622446
-0.10346485674381256 -0.03574346750974655 0.3961726427078247
-0.09360743314027786 0.07740090042352676 0.1328691840171814
0.05023850128054619 -0.11868797987699509 -0.05330565571784973
0.09167225658893585 -0.0889146476984024 -0.032834623008966446
0.11227010190486908 -0.06617285311222076 -0.013536417856812477
0.07765905559062958 -0.1008741483092308 0.14821544289588928
-0.09812531620264053 0.08100748062133789 0.17626886069774628
-0.12243674695491791 0.013068897649645805 0.00883565191179514
-0.07669131457805634 0.1258913278579712 -0.06379862874746323
0.08614111691713333 -0.08813687413930893 -0.021453144028782845
0.10157832503318787 -0.08368943631649017 -0.19423706829547882
0.12147422134876251 -0.06885600090026855 0.010347810573875904
-0.05901014432311058 -0.016554836183786392 -0.39726296067237854
0.03688604757189751 -0.09561271965503693 -0.021802639588713646
0.0019590146839618683 -0.10832571983337402 0.06659568846225739
-0.04538913816213608 -0.10827366262674332 0.0983920618891716
-0.10265126824378967 0.09607725590467453 0.2788449227809906
-0.0401240736246109 0.12337300181388855 -0.26142027974128723
-0.12304647266864777 0.0316544733941555 0.25827550888061523
-0.0034387782216072083 -0.10568606853485107 0.22026903927326202
-0.09407691657543182 -0.06955739855766296 -0.03411247581243515
-0.08393484354019165 -0.05222827196121216 0.06637123972177505
0.021217122673988342 -0.10967698693275452 -0.013669107109308243
0.10986755043268204 -0.06297853589057922 0.10296845436096191
0.06328067183494568 -0.0958089604973793 -0.23536890745162964
0.03272145986557007 -0.12488894164562225 -0.00444819824770093
-0.00195268914103508 -0.11529280245304108 0.018455376848578453
-0.11569246649742126 -0.018587300553917885 0.07782889902591705
0.06030796095728874 -0.10864817351102829 0.2652635872364044
-0.027003182098269463 -0.11070719361305237 0.3072364628314972
0.07532757520675659 -0.09757448732852936 -0.028062861412763596
-0.05912557989358902 0.11145833134651184 -0.1971586048603058
-0.04805949330329895 -0.11822449415922165 -0.028790954500436783
0.09218555688858032 -0.06403887271881104 0.02736729010939598
-0.024635985493659973 -0.11205873638391495 -0.04090294986963272
-0.08282556384801865 -0.027751320973038673 -0.16523978114128113
-0.1258968859910965 -0.018154826015233994 -0.07560667395591736
-0.11647922545671463 0.052147094160318375 -0.02582680433988571
0.015595600940287113 -0.10857605934143066 -0.17290736734867096
-0.02394559606909752 -0.0994533896446228 0.18803253769874573
-0.06216933950781822 0.12204249203205109 0.1598861664533615
-0.11410918086767197 -0.0006251893937587738 0.03975508734583855
-0.11281484365463257 0.0658428966999054 0.013158203102648258
-0.012261027470231056 -0.09804262965917587 0.01683915965259075
0.02130480483174324 -0.09214305877685547 -0.3700786530971527
0.08002166450023651 -0.08568409830331802 -0.01896878518164158
-0.07755009084939957 0.0804276391863823 -0.3472785949707031
-0.1144283190369606 0.05862324312329292 0.005350537598133087
0.10437531769275665 -0.06769178807735443 -0.0005948580801486969
-0.1150762289762497 0.054851166903972626 0.006175927817821503
-0.050209082663059235 -0.025992650538682938 -0.36431369185447693
-0.08289429545402527 -0.06381984800100327 -0.03043637052178383
-0.11555087566375732 0.048815276473760605 0.016098177060484886
-0.09792588651180267 -0.02860056236386299 0.2123258262872696
-0.11782324314117432 0.021799542009830475 0.0975273996591568
0.06265591084957123 -0.1029272973537445 -0.025729484856128693
-0.1066201776266098 0.1104249358177185 0.3646349012851715
-0.09471303224563599 -0.05750478804111481 0.023963836953043938
-0.08940111845731735 -0.04745757579803467 -0.014646150171756744
0.10876423120498657 -0.05644206702709198 0.0037956135347485542
-0.10847315192222595 -0.059428054839372635 -0.140360027551651
0.09112046658992767 -0.08064502477645874 -0.024872178211808205
-0.11210889369249344 -0.023714236915111542 0.01614249125123024
-0.1137615218758583 0.022055601701140404 0.007751982659101486
-0.11065405607223511 -0.0195511095225811 0.047970909625291824
0.07498154044151306 -0.10208254307508469 -0.12029479444026947
-0.11295399069786072 -0.010966509580612183 0.06501398980617523
-0.10819198191165924 -0.02220020443201065 0.0681474357843399
-0.08450910449028015 0.11050824075937271 0.002939211204648018
-0.026794027537107468 0.05137798190116882 -0.4290623962879181
-0.11990079283714294 -0.03915068507194519 0.34594613313674927
0.09156865626573563 -0.08092078566551208 -0.023340199142694473
-0.044043563306331635 0.048832401633262634 -0.2299025058746338
0.10961507260799408 -0.06287172436714172 -0.007303541526198387
-0.08587059378623962 -0.08438330888748169 0.4193129539489746
0.07313966006040573 -0.10072100162506104 0.15954849123954773
-0.08492687344551086 -0.053555745631456375 -0.03746633976697922
-0.11708525568246841 0.02471349574625492 0.009569065645337105
0.09276074916124344 -0.07630006968975067 -0.004673461429774761
0.008809369057416916 -0.10818013548851013 0.015016459859907627
-0.12161871790885925 -0.020284954458475113 0.04882559925317764
-0.12557408213615417 0.05716604366898537 0.3503822982311249
-0.13464811444282532 0.019034840166568756 0.29714250564575195
0.06856722384691238 -0.08043605834245682 -0.16155171394348145
0.056339092552661896 -0.08123050630092621 -0.3393911123275757
-0.12441670894622803 0.01782114803791046 0.0016216551885008812
-0.053431689739227295 -0.0693361908197403 -0.2942822575569153
0.08600246161222458 -0.08467377722263336 -0.031799543648958206
0.032886289060115814 -0.10597109794616699 0.37846192717552185
0.05255850404500961 -0.0950021743774414 -0.0005572997033596039
0.07931606471538544 -0.10658633708953857 0.24016286432743073
0.10685494542121887 -0.06277382373809814 -0.017998360097408295
0.07880865037441254 -0.08171769231557846 -0.02190113253891468
-0.08720922470092773 0.11013629287481308 0.06475415825843811
0.09314127266407013 -0.07334717363119125 0.08634845167398453
0.10909098386764526 -0.06570293754339218 -0.0032471027225255966
-0.12352456152439117 -0.018063999712467194 0.3377665579319
-0.059473589062690735 0.14099395275115967 -0.05003422871232033
-0.04673199728131294 0.11902899295091629 0.06745660305023193
-0.03886515647172928 -0.10270716995000839 -0.09232174605131149
-0.12850934267044067 0.009410817176103592 -0.1271488219499588
-0.11863157153129578 0.023401331156492233 -0.006391161121428013
-0.1103554293513298 -0.04703314229846001 -0.12504252791404724
0.04319004714488983 -0.11309094727039337 0.044905006885528564
0.0963413268327713 -0.06892549991607666 -0.2539084255695343
-0.10781019181013107 -0.023353612050414085 0.06326306611299515
-0.10985440015792847 0.05312708392739296 0.23074856400489807
0.10078764706850052 -0.04680750146508217 -0.22328969836235046
-0.11126524209976196 -0.029802152886986732 0.0069906036369502544
0.10597726702690125 -0.06452441215515137 0.002521897666156292
0.10785823315382004 -0.059718504548072815 0.0031227392610162497
-0.11055268347263336 0.08031719923019409 0.0904524028301239
-0.0688256323337555 0.09504486620426178 0.03285487741231918
-0.0780014917254448 0.0886022225022316 0.08286993205547333
0.1128745749592781 -0.06832481920719147 -0.003247705288231373
0.11832314729690552 -0.0567036047577858 0.005690308287739754
-0.028666578233242035 -0.06151314452290535 -0.3802678883075714
-0.11400921642780304 -0.03860456869006157 -0.06501300632953644
-0.02659289538860321 -0.09451936185359955 0.018877629190683365
0.0928826555609703 -0.09311380982398987 -0.11505695432424545
-0.11640077084302902 0.01853673718869686 0.004971022251993418
-0.13587947189807892 0.031009547412395477 0.03150871396064758
0.015893764793872833 -0.11291670054197311 -0.014615734107792377
-0.0016949418932199478 -0.1321757733821869 -0.16105259954929352
0.1108241006731987 -0.05970006436109543 -0.0045175859704613686
0.08138461410999298 -0.0845557376742363 0.17818263173103333
0.04448214918375015 -0.13545456528663635 0.4095170795917511
0.0999884158372879 -0.0687832236289978 -0.00023446977138519287
-0.051082953810691833 -0.04492215812206268 -0.036455437541007996
-0.12297259271144867 0.021031823009252548 0.08953972160816193
0.0976777896285057 -0.09164931625127792 0.0308013167232275
0.07862119376659393 -0.06855306029319763 -0.16435173153877258
0.015734076499938965 -0.1113663837313652 0.04999302327632904
0.1023295447230339 -0.06469515711069107 -0.008145441301167011
-0.06256541609764099 -0.08665554970502853 -0.04145624861121178
0.03711400926113129 -0.11104285717010498 -0.1920740306377411
0.11059176921844482 -0.06572934985160828 -0.0067193154245615005
0.10990488529205322 -0.09371393173933029 -0.09817768633365631
0.10805468261241913 -0.06632397323846817 -0.011686140671372414
0.1025618314743042 -0.0614021010696888 0.013709859922528267
0.07100805640220642 -0.09180898219347 0.061815787106752396
0.06137659400701523 -0.10023965686559677 0.04135357588529587
-0.06716461479663849 0.12265398353338242 0.42699751257896423
-0.08424487709999084 0.10929460823535919 0.2042166143655777
0.13111387193202972 -0.031741559505462646 0.06056099385023117
-0.11123628169298172 -0.040408533066511154 0.3060702979564667
0.05932962894439697 -0.09612861275672913 0.04315517097711563
-0.10611273348331451 -0.04917861893773079 -0.0681372582912445
-0.10551536828279495 -0.050339311361312866 -0.1919087916612625
-0.05860529839992523 0.12205373495817184 0.08273845911026001
-0.06829160451889038 0.09799407422542572 0.044579580426216125
-0.06675016134977341 -0.03897927701473236 0.1570664495229721
-0.04848746210336685 -0.10297083854675293 0.3342273235321045
-0.10545084625482559 -0.04950883984565735 0.017905578017234802
-0.11905241012573242 -0.02330627292394638 -0.021488171070814133
0.04399515688419342 -0.10183718055486679 -0.12405818700790405
0.006818946450948715 -0.1088186725974083 -0.103177011013031
-0.03570227324962616 -0.09819148480892181 -0.02297799289226532
0.11085228621959686 -0.07217256724834442 -0.06001420319080353
0.11000022292137146 -0.07949896156787872 0.015904340893030167
0.1051560789346695 -0.06097035109996796 0.0071641188114881516
-0.07752440869808197 0.12558583915233612 -0.10279039293527603
-0.07311786711215973 0.058379560708999634 -0.04328097403049469
0.09499353170394897 -0.07283008843660355 0.17989200353622437
0.1082284227013588 -0.06639216840267181 -0.007113240659236908
-0.1181887537240982 0.01568782702088356 0.008678634651005268
0.10891372710466385 -0.06200193613767624 -0.059851910918951035
0.0971238985657692 -0.08344568312168121 0.21116305887699127
-0.08894415199756622 0.007832890376448631 -0.3284113109111786
-0.002181755378842354 -0.11347039043903351 -0.13710255920886993
-0.1075742244720459 0.047964680939912796 0.05098660662770271
-0.13351933658123016 -0.01359906792640686 0.13967759907245636
0.07487975060939789 -0.10594840347766876 0.03110078163444996
-0.0709872841835022 0.1024928018450737 0.06277167797088623
-0.11497796326875687 -0.02505030855536461 0.06199032440781593
-0.11931438744068146 0.024022787809371948 -0.0007466208189725876
0.09331261366605759 -0.08248769491910934 -0.009487885981798172
-0.061324745416641235 0.09384740889072418 -0.09936468303203583
-0.11107826232910156 -0.04015103727579117 -0.027970125898718834
-0.11666906625032425 0.01801125891506672 0.005193846300244331
-0.09153850376605988 0.07156096398830414 -0.2640553414821625
0.11055898666381836 -0.06384699791669846 -0.006525713950395584
-0.12032648175954819 0.04134564474225044 0.06057411804795265
