-0.10145854204893112 -0.024337120354175568 -0.08666780591011047
-0.06420302391052246 0.05132327973842621 -0.13908468186855316
-0.06793157756328583 0.1123126745223999 -0.06381580233573914
0.11325359344482422 -0.060285285115242004 0.002646331675350666
-0.08453395962715149 0.06480853259563446 0.3570803701877594
0.023655682802200317 -0.027230221778154373 -0.42205268144607544
0.08734839409589767 -0.06671037524938583 -0.02255634032189846
-0.06900135427713394 0.08720407634973526 0.11154784262180328
-0.011275247670710087 -0.044529907405376434 0.21908700466156006
0.09166863560676575 -0.0545727014541626 -0.1421121060848236
0.04170272871851921 -0.09478436410427094 -0.04545598477125168
-0.07135471701622009 0.03890230134129524 0.1873309314250946
0.10078875720500946 -0.04674256220459938 0.07631561905145645
0.0983366072177887 -0.057358868420124054 -0.04128914698958397
-0.03669201210141182 -0.09772907197475433 -0.06094233691692352
-0.06743959337472916 -0.002414727583527565 0.24777349829673767
0.08853767812252045 -0.06258273869752884 -0.020998623222112656
5.1140785217285156e-05 -0.053035102784633636 0.03470129892230034
-0.08082300424575806 0.03613290935754776 0.12989285588264465
0.07379841059446335 -0.07178276032209396 0.09917072206735611
0.03238259255886078 0.30938947200775146 0.1029994860291481
0.05067353695631027 -0.1025690957903862 -0.14608882367610931
0.004654213786125183 -0.09821133315563202 0.08102558553218842
0.005519821308553219 -0.08481978625059128 -0.09617035835981369
-0.0725996196269989 -0.03033417835831642 -0.002760158386081457
-0.0740424171090126 -0.03431374207139015 -0.2407492697238922
0.11197122186422348 -0.05959946662187576 -0.03567531704902649
0.0076275113970041275 -0.06478115171194077 0.3400951027870178
0.16621826589107513 0.00859346054494381 0.16615349054336548
-0.051730260252952576 0.129415825009346 -0.10073083639144897
-0.047768548130989075 -0.007145957089960575 -0.011345422826707363
-0.05733010172843933 -0.06550204008817673 0.18630743026733398
-0.0487496517598629 0.05711418762803078 -0.014291886240243912
-0.011597840115427971 -0.05533064901828766 0.03535659611225128
-0.0951010212302208 0.00981192011386156 -0.021095581352710724
-0.08291944861412048 -0.006425578147172928 0.12478162348270416
-0.10267964750528336 0.040819719433784485 0.14577053487300873
-0.06206326186656952 0.01922653242945671 0.005988639779388905
0.049018822610378265 -0.0792594850063324 0.011090751737356186
-0.06225818023085594 -0.07499125599861145 -0.034127913415431976
-0.07633677124977112 0.05671311914920807 0.059230342507362366
0.12115651369094849 -0.0592656135559082 -0.03365202248096466
0.036021582782268524 -0.07447125762701035 0.04125059396028519
0.13479040563106537 -0.06959588080644608 0.1583898365497589
0.08077266067266464 -0.08653572201728821 0.19731372594833374
-0.06777951866388321 -0.064280666410923 0.03756251186132431
0.02271898090839386 -0.07067187130451202 0.0008026533760130405
0.03840368986129761 -0.07589443027973175 0.006308797746896744
-0.07465948909521103 0.018172208219766617 -0.001236259937286377
-0.0691891461610794 -0.028186220675706863 0.0034755091182887554
-0.0838502049446106 0.030928682535886765 0.043257296085357666
-0.06465552747249603 0.1358710378408432 -0.02627514861524105
0.03256769850850105 -0.06440167129039764 -0.08779723942279816
-0.06314072757959366 0.11324912309646606 0.025925710797309875
-0.04029432684183121 0.07072768360376358 0.31521865725517273
-0.06859834492206573 0.09632593393325806 -0.10153593868017197
-0.0922556072473526 0.046658724546432495 -0.11604490876197815
-0.06986496597528458 -0.011695798486471176 0.011592811904847622
-0.08716864138841629 0.09871779382228851 0.18738645315170288
0.10415299236774445 -0.059104662388563156 -0.03100765310227871
-0.08174824714660645 0.11148568242788315 -0.11690080165863037
-0.08177408576011658 0.10440830141305923 -0.07875213027000427
0.08386798948049545 -0.041087470948696136 -0.23295307159423828
0.18206390738487244 -0.06336402148008347 -0.15085691213607788
0.09374396502971649 -0.05200464278459549 -0.004919672384858131
0.12581978738307953 -0.055761225521564484 0.08961079269647598
-0.07456019520759583 -0.06608032435178757 0.33166778087615967
0.02594175934791565 -0.07560236006975174 -0.3162676692008972
-0.06308439373970032 0.13647641241550446 0.15409384667873383
-0.022456781938672066 -0.07480676472187042 0.04006609693169594
-0.054884813725948334 0.000609263894148171 0.06954744458198547
0.03724931180477142 -0.058264411985874176 -0.15696243941783905
0.0661197304725647 -0.06471632421016693 0.040980614721775055
-0.055809132754802704 -0.0587649792432785 0.0496615394949913
-0.09452842175960541 0.0655459389090538 -0.2547622621059418
-0.02951943129301071 -0.07258303463459015 0.06744382530450821
-0.0006365738809108734 -0.06535705924034119 0.024670634418725967
0.002940349280834198 0.05284905433654785 0.18047112226486206
-0.09353955090045929 -0.04686427116394043 0.16157957911491394
0.06949198991060257 -0.05906951427459717 -0.009672526270151138
0.09813839197158813 -0.050609834492206573 0.0006809830665588379
0.04878303408622742 -0.07880708575248718 -0.03703323006629944
0.11094865947961807 -0.060808420181274414 -0.09535013884305954
-0.09586135298013687 0.08633292466402054 -0.15598264336585999
0.055762823671102524 -0.07650168240070343 0.011264989152550697
0.07921802997589111 -0.06544254720211029 -0.02249562367796898
0.02470037154853344 -0.03247614577412605 0.06128410995006561
-0.07150214165449142 -0.02496865577995777 0.004564089700579643
-0.09976033866405487 0.060721851885318756 -0.038203876465559006
0.04888340085744858 -0.06686623394489288 0.04379848390817642
-0.06051480025053024 -0.08795736730098724 0.37843653559684753
-0.08492428809404373 -0.05721244215965271 0.0716843232512474
-0.058912940323352814 -0.01071805041283369 -0.0945468619465828
-0.09190799295902252 0.09280209243297577 0.08884576708078384
0.028382614254951477 -0.06490768492221832 -0.012650168500840664
0.11006467044353485 -0.038936465978622437 -0.05727316439151764
0.13150034844875336 -0.08460986614227295 -0.10972806066274643
-0.07514262199401855 -0.034299712628126144 0.06138606369495392
-0.09445083141326904 0.0824618935585022 -0.13551081717014313
-0.0633147656917572 -0.04150155559182167 0.07554905116558075
0.1043367087841034 -0.059037260711193085 0.039557673037052155
-0.10329533368349075 0.0735917016863823 0.1803639978170395
0.014954403974115849 -0.01854737475514412 -0.32813602685928345
-0.06759518384933472 -0.07272139936685562 0.06983257085084915
0.1275850236415863 -0.0765504539012909 0.35946279764175415
0.10577666759490967 -0.05485328286886215 0.0028607873246073723
0.0814487487077713 -0.06802073866128922 -0.028046049177646637
-0.09175723046064377 0.028022097423672676 0.04538779333233833
0.10445772856473923 -0.07611335813999176 -0.004242079332470894
0.04379341006278992 -0.06625818461179733 0.019501451402902603
0.07884698361158371 -0.0540347546339035 0.010983316227793694
-0.04233367741107941 -0.08338548988103867 0.30399319529533386
-0.07910770922899246 0.024682868272066116 -0.033814046531915665
-0.101537324488163 0.04937901347875595 0.2041877657175064
0.10776878893375397 -0.061996180564165115 0.1269112378358841
0.11320681869983673 0.0027459636330604553 0.09869139641523361
0.09637471288442612 -0.06958313286304474 0.16977012157440186
-0.0046279169619083405 -0.07615403085947037 0.017855539917945862
0.10381778329610825 -0.06966767460107803 0.1885337382555008
0.006304643116891384 -0.10039988905191422 0.12947089970111847
-0.021840710192918777 -0.06697050482034683 0.006719648372381926
-0.013096144422888756 -0.057025328278541565 0.17079037427902222
-0.05611587315797806 0.04105369746685028 -0.08795163780450821
-0.08546538650989532 -0.06398239731788635 0.27550429105758667
-0.06992810219526291 -0.03542137145996094 -0.017006220296025276
-0.077883780002594 0.02908182516694069 -0.17730703949928284
-0.08915191143751144 -0.04388417676091194 0.2406042069196701
-0.09161978960037231 -0.048756442964076996 -0.06348997354507446
-0.06980308890342712 0.090302474796772 -0.023267284035682678
-0.09747971594333649 0.02658820152282715 0.0073525249026715755
-0.07143372297286987 -0.006477655842900276 0.041567184031009674
-0.016301274299621582 -0.09884396195411682 -0.14800822734832764
0.051902733743190765 -0.06736209988594055 -0.005965969059616327
-0.0754363015294075 -0.015285616740584373 -0.003787614405155182
0.04606851190328598 -0.08410652726888657 -0.11177843809127808
0.21557500958442688 -0.06741422414779663 0.1328832358121872
-0.0946534052491188 0.05134738236665726 -0.002647027373313904
-0.08617307990789413 0.03887747973203659 -0.1328037977218628
-0.010316189378499985 -0.06078002601861954 -0.13254643976688385
-0.05470701679587364 -0.02425428107380867 -0.15704374015331268
0.09815481305122375 -0.06124403700232506 0.011666769161820412
-0.08079074323177338 -0.050806403160095215 -0.05498168617486954
0.011792398989200592 -0.07423590868711472 -0.07479427754878998
-0.05527239665389061 0.04111449420452118 0.08387884497642517
0.10053711384534836 -0.06181245297193527 -0.009946789592504501
-0.038211092352867126 -0.10375126451253891 0.30709826946258545
0.07048088312149048 -0.08837255835533142 -0.17802712321281433
-0.053616706281900406 0.05276474356651306 -0.2865321636199951
0.030980024486780167 -0.10623052716255188 0.019814740866422653
0.047389715909957886 -0.07167321443557739 0.03948729485273361
-0.08340144902467728 -0.03406132757663727 0.07423999905586243
-0.01795376092195511 -0.06607383489608765 0.015742899850010872
0.00021426379680633545 -0.11533918976783752 0.374006450176239
-0.06605012714862823 -0.008286990225315094 -0.023098746314644814
-0.0010968632996082306 -0.11422083526849747 0.3435233533382416
-0.0729379951953888 0.010174034163355827 0.016878407448530197
-0.06883590668439865 -0.014672640711069107 0.061713993549346924
0.03586268424987793 -0.10496704280376434 -0.19075077772140503
-0.07226049900054932 0.1526336371898651 -0.25130695104599
-0.07764936238527298 0.03125603497028351 0.022250469774007797
-0.05344283953309059 0.10103600472211838 -0.2900843620300293
0.09107018262147903 -0.07748924940824509 -0.08764973282814026
0.11089562624692917 -0.06737904995679855 -0.003690594807267189
0.0037381164729595184 -0.06496158242225647 0.01690918207168579
-0.12308864295482635 0.020245207473635674 -0.15248239040374756
0.02100425772368908 -0.08016446232795715 -0.021742062643170357
0.07476456463336945 -0.07456429302692413 -0.028612788766622543
0.08850458264350891 -0.06035126745700836 0.07810235023498535
-0.0702243447303772 -0.002317272126674652 0.05968697369098663
0.0018660426139831543 -0.058405518531799316 0.015970885753631592
0.05875759944319725 -0.07018241286277771 -0.0039990004152059555
0.06258752197027206 -0.07592462003231049 0.004621122032403946
-0.08136238902807236 0.04965251311659813 0.031061630696058273
0.0467570498585701 -0.07539787888526917 -0.042567748576402664
-0.06205759942531586 0.1902829110622406 0.12322686612606049
-0.05840884894132614 0.04020541533827782 0.03808415308594704
0.18717950582504272 0.009559949859976768 0.03292563557624817
0.21072031557559967 -0.06692437827587128 0.32448604702949524
-0.08606356382369995 0.039539169520139694 0.019817400723695755
-0.04563949629664421 -0.03114999458193779 -0.03831334412097931
0.017680825665593147 -0.04261152073740959 0.13541312515735626
-0.09005140513181686 0.02365700528025627 0.051063522696495056
-0.11679396033287048 0.04004450887441635 -0.043444059789180756
0.06650619208812714 -0.09423360228538513 -0.03232016786932945
0.16820713877677917 0.007775195874273777 0.31557124853134155
-0.10080410540103912 0.02793426811695099 0.0455867275595665
-0.03954875469207764 0.2280925214290619 0.24615487456321716
-0.0668090209364891 0.013551470823585987 -0.05932532250881195
-0.007005889900028706 -0.046947870403528214 -0.17483735084533691
-0.07150048762559891 -0.0634993463754654 0.1460917592048645
0.006890665739774704 -0.07409921288490295 0.04677017778158188
0.06963388621807098 -0.060461126267910004 -0.007157580927014351
-0.04749061167240143 -0.05457962304353714 -0.06672953814268112
-0.028836769983172417 -0.0501927025616169 -0.2206091731786728
-0.038560446351766586 -0.08417768031358719 -0.0731734186410904
0.0018892660737037659 -0.11549557745456696 -0.028222357854247093
-0.07557843625545502 0.10605043172836304 0.04952139034867287
-0.08549726009368896 0.05045169219374657 -0.038421086966991425
0.08959716558456421 -0.05242167413234711 -0.18088045716285706
0.05024900659918785 -0.06516505777835846 0.03212331607937813
-0.043087638914585114 -0.08716218173503876 -0.10969456285238266
0.036816295236349106 -0.06840451061725616 -0.02045951969921589
0.0025978516787290573 -0.07288312911987305 -0.00013962946832180023
0.015093361027538776 -0.05827026814222336 0.05217752233147621
0.10797972977161407 -0.051978785544633865 -0.017358023673295975
-0.08678299188613892 0.0397188700735569 -0.004133027046918869
-0.015803029760718346 -0.06635038554668427 0.029795357957482338
0.029757510870695114 0.29249516129493713 -0.03675143048167229
-0.09332084655761719 0.0404939241707325 -0.023215949535369873
-0.02125922590494156 -0.07611275464296341 0.01169293187558651
0.048618074506521225 -0.09241259843111038 0.0020690392702817917
-0.07399849593639374 0.061800021678209305 0.058725498616695404
-0.0708012729883194 0.08757155388593674 -0.03479033336043358
0.0629151314496994 -0.07564112544059753 0.04496373236179352
0.005022895988076925 -0.06569777429103851 0.007180390879511833
-0.07326871901750565 -0.04849729686975479 -0.043597593903541565
-0.09317571669816971 0.04254118725657463 -0.05269811674952507
-0.09073647111654282 0.02940528467297554 0.06409771740436554
0.008911807090044022 -0.07761255651712418 0.011357884854078293
-0.04222007095813751 -0.0583081990480423 0.03317762166261673
-0.08797729015350342 0.004714129492640495 -0.12347709387540817
-0.03482016921043396 0.1380460113286972 0.08082416653633118
-0.06964956223964691 -0.04962821677327156 0.037606168538331985
-0.07631227374076843 0.03364736586809158 -0.0004170036409050226
-0.08544058352708817 0.027212779968976974 0.09275615215301514
-0.07477782666683197 0.009536299854516983 0.020283479243516922
-0.09604859352111816 0.02891578897833824 0.07528885453939438
0.05556240677833557 -0.10136418044567108 -0.01857566274702549
-0.11543899029493332 -0.02217669039964676 0.18114525079727173
0.05434119328856468 -0.05891209468245506 -0.009022682905197144
-0.06265184283256531 0.08891206979751587 -0.15095154941082
-0.03821362182497978 -0.02274751476943493 -0.07202177494764328
0.04272765666246414 -0.07946008443832397 -0.03413310647010803
0.09612728655338287 -0.05087735876441002 -0.020179683342576027
-0.07367242127656937 -0.02648603916168213 -0.1564432680606842
-0.06687622517347336 -0.022392963990569115 -0.11123385280370712
-0.018896790221333504 0.08152605593204498 -0.34444910287857056
-0.07625867426395416 0.15119943022727966 0.016926392912864685
0.0009718849323689938 -0.05926667898893356 0.018336983397603035
-0.10275350511074066 -0.05448301136493683 -0.05327128991484642
0.0828147754073143 -0.08833335340023041 0.3300214111804962
-0.049394164234399796 0.12077682465314865 -0.19605198502540588
-0.0031992346048355103 -0.08976459503173828 -0.06284952163696289
-0.06618774682283401 -0.05014270916581154 -0.019819555804133415
0.0013232622295618057 -0.06874311715364456 0.28066307306289673
-0.06340833008289337 -0.05641242861747742 -0.04396818205714226
0.05068193003535271 -0.061537060886621475 -0.003968633711338043
0.02034688927233219 -0.10074342042207718 0.25937432050704956
0.16291502118110657 -0.06511996686458588 0.20394501090049744
-0.04827141761779785 -0.06613431870937347 0.013895981013774872
0.06764325499534607 -0.044975508004426956 0.01726066693663597
-0.07603441178798676 -0.06082330271601677 -0.04325225204229355
-0.08203362673521042 0.024286353960633278 0.05645609647035599
0.08906058967113495 -0.05745960772037506 0.0640554130077362
0.06430070102214813 -0.06842369586229324 -0.003232356160879135
-0.062264926731586456 0.05113443732261658 0.14857469499111176
0.04003313183784485 -0.08077485859394073 -0.0218467079102993
0.0028694868087768555 -0.06259206682443619 -0.011535821482539177
-0.054989561438560486 0.04820006340742111 0.108151875436306
0.019831746816635132 -0.11652518808841705 -0.16677959263324738
-0.005975805222988129 -0.07274127751588821 -0.006021829321980476
-0.08802390843629837 -0.03820008412003517 -0.04158882051706314
-0.015295496210455894 -0.06963890790939331 0.05196496844291687
0.07733668386936188 -0.08090014010667801 -0.07635398954153061
0.04914502426981926 -0.08657468855381012 -0.07726773619651794
-0.03259437531232834 -0.06342483311891556 0.05265619978308678
-0.11537681519985199 0.047708600759506226 -0.09530119597911835
0.1071074903011322 -0.04591818153858185 0.014836332760751247
0.08361256867647171 -0.05881236493587494 -0.017840605229139328
0.31237974762916565 0.04851542040705681 0.274441659450531
-0.010913996957242489 -0.08609684556722641 0.051747120916843414
0.10740245133638382 -0.07890761643648148 -0.23821575939655304
0.17813588678836823 -0.05116502568125725 -0.09057491272687912
-0.08161836117506027 0.03898080438375473 0.11571356654167175
0.0051892902702093124 -0.07446958869695663 0.013336556032299995
-0.07615676522254944 -0.07605518400669098 -0.14467324316501617
-0.09515595436096191 -0.017541803419589996 -0.029012028127908707
0.061843618750572205 -0.05978158116340637 0.011417318135499954
-0.05953047797083855 -0.051328230649232864 0.059369612485170364
0.11053761839866638 -0.06821807473897934 -0.17014390230178833
-0.010058645159006119 -0.0805821567773819 0.0024886298924684525
0.08242017775774002 -0.09075659513473511 -0.09280763566493988
-0.061771731823682785 -0.03952980414032936 -0.051060643047094345
0.009114920161664486 -0.07221473753452301 -0.09790859371423721
-0.07538281381130219 -0.029065145179629326 0.0631108283996582
-0.059901051223278046 -0.047205064445734024 -0.13316507637500763
0.0033056349493563175 -0.07016398757696152 0.006744425743818283
0.07823864370584488 -0.07872015982866287 -0.2256452590227127
-0.03700576350092888 -0.06738092750310898 0.04386858269572258
-0.04992097243666649 -0.016348863020539284 0.019469138234853745
0.00036705099046230316 -0.06189925596117973 0.00955464132130146
-0.06896316260099411 0.005814196541905403 -0.17918264865875244
-0.09521223604679108 0.013142867013812065 -0.27614954113960266
-0.09964991360902786 0.06618283689022064 -0.08091920614242554
-0.010892810299992561 -0.10344712436199188 -0.09503187984228134
-0.07546880841255188 -0.0247234757989645 -0.026296574622392654
-0.07058416306972504 -0.05299507826566696 -0.0502948984503746
0.0170818530023098 0.00648749154061079 -0.4914253056049347
-0.08813197910785675 0.12310554832220078 -0.13171301782131195
-0.0687556341290474 -0.034895408898591995 -0.003359986934810877
-0.036309584975242615 -0.05257077515125275 -0.2820964753627777
0.07036620378494263 -0.0716550350189209 0.04306483268737793
0.04326539486646652 -0.07748150080442429 -0.040956128388643265
0.02121511846780777 -0.08163607865571976 -0.023592032492160797
0.05326920002698898 -0.07692433148622513 0.018451709300279617
-0.005041077733039856 -0.090230293571949 -0.1998865306377411
0.045309096574783325 -0.10375910997390747 -0.10535898059606552
-0.11498722434043884 -0.03392713516950607 0.38143688440322876
-0.02673841081559658 -0.0660756379365921 -0.10091418027877808
0.049352340400218964 -0.07159975171089172 0.1350187361240387
-0.07962171733379364 0.03165570646524429 0.030691631138324738
-0.07130568474531174 -0.010460811667144299 -0.0091143399477005
-0.06758779287338257 -0.055925894528627396 0.05129869654774666
0.0724634975194931 -0.0786987841129303 -0.12116849422454834
-0.08590540289878845 -0.007852103561162949 -0.18675948679447174
0.09686741232872009 -0.07001611590385437 -0.01534185465425253
-0.04684273898601532 -0.04533516243100166 0.2414466291666031
0.08060962706804276 -0.0581437386572361 -0.014349142089486122
-0.037074409425258636 -0.0723140612244606 0.11265585571527481
0.06685809791088104 -0.07383206486701965 -0.004879498854279518
0.03823048993945122 -0.07435975968837738 -0.1382366567850113
-0.11498496681451797 -0.016636382788419724 -0.13024815917015076
-0.0742136612534523 0.016435682773590088 0.0004116613417863846
-0.07120082527399063 -0.028523994609713554 0.005839889403432608
-0.07970117777585983 0.030924629420042038 -0.05873844772577286
-0.009154487401247025 -0.05914083123207092 0.017168359830975533
-0.06392436474561691 -0.0405387356877327 -0.030114833265542984
-0.04647479206323624 0.0997966080904007 -0.17425000667572021
0.07434970140457153 -0.08666237443685532 0.2821788787841797
0.08759704977273941 -0.059647828340530396 -0.04652997851371765
0.07933980226516724 -0.06837165355682373 -0.04331757128238678
0.07251091301441193 -0.0603545680642128 0.0033111684024333954
-0.05356583744287491 -0.05777967721223831 -0.11897680163383484
0.07578644901514053 -0.05104576051235199 -0.032152071595191956
-0.08750736713409424 0.04279990494251251 -0.007981064729392529
0.16497381031513214 -0.0683424323797226 0.0785740315914154
-0.077727772295475 -0.049152061343193054 -0.033810898661613464
-0.07144608348608017 -0.06605742126703262 -0.1984349638223648
-0.06213216483592987 0.031057700514793396 0.006141138728708029
-0.10958770662546158 0.043029434978961945 0.05416633188724518
-0.09944760799407959 0.038986995816230774 0.028015922755002975
0.03924541175365448 -0.07591462135314941 -0.021452646702528
-0.025798374786973 -0.0727061852812767 0.09369455277919769
0.006922544911503792 -0.08678604662418365 0.18958649039268494
0.08513135462999344 -0.029642120003700256 -0.04522532969713211
-0.1000765785574913 0.08577556163072586 -0.020901191979646683
0.028262341395020485 -0.06258272379636765 0.07466091215610504
-0.09173467755317688 0.043911151587963104 0.013837730512022972
0.008813401684165001 -0.10797841846942902 -0.05837034806609154
-0.06590943038463593 0.030021268874406815 -0.11302978545427322
-0.08550660312175751 0.045650914311409 0.061063624918460846
-0.10438650846481323 -0.041684653609991074 -0.02548527903854847
-0.056484006345272064 0.08592747896909714 -0.09983392804861069
-0.0640423446893692 -0.03937720134854317 -0.014769948087632656
0.0651295930147171 -0.07217474281787872 -0.005267673172056675
0.05765581876039505 -0.04562032222747803 -0.00840257853269577
0.09668917953968048 -0.060928087681531906 -0.01919514872133732
0.11533597111701965 -0.06680028140544891 -0.0496128648519516
0.01724175177514553 -0.06693407893180847 0.020597761496901512
0.023085780441761017 -0.10854460299015045 0.19566145539283752
-0.0528796911239624 0.08922840654850006 -0.006344964727759361
-0.07990126311779022 0.029444778338074684 0.12940335273742676
-0.06776396185159683 0.07706985622644424 0.1151619628071785
0.05470917746424675 -0.07722105085849762 0.01793818362057209
0.051627159118652344 -0.07412010431289673 -0.024722950533032417
-0.07041873037815094 -0.04699909687042236 0.01600511372089386
0.040350861847400665 -0.04619966819882393 -0.03545241802930832
-0.00026795268058776855 -0.07092980295419693 0.007900537922978401
-0.08044341206550598 0.03365148976445198 0.018688159063458443
-0.05476294830441475 -0.061048511415719986 -0.04094725847244263
-0.08585046231746674 0.041062552481889725 -0.03322852402925491
0.05248226225376129 -0.04733683168888092 0.14018377661705017
0.029086824506521225 -0.06766048073768616 -0.014027241617441177
-0.028461329638957977 -0.058257121592760086 0.035432368516922
0.04635917395353317 -0.09701767563819885 0.0640491396188736
-0.011377491056919098 -0.08425059914588928 0.011696364730596542
-0.07253801077604294 -0.010769746266305447 0.04943878948688507
-0.011458780616521835 -0.056245774030685425 0.3434697985649109
-0.04319807142019272 -0.08418779820203781 -0.1688944697380066
0.04356623813509941 -0.056621067225933075 0.07530706375837326
-0.12821176648139954 0.0388038232922554 0.37833908200263977
0.03319597244262695 -0.06073698028922081 -0.01298760436475277
-0.07454119622707367 0.016818854957818985 0.034039199352264404
-0.0943390280008316 -0.05098756030201912 -0.1646307110786438
-0.08567827194929123 -0.02530655637383461 -0.12285052239894867
-0.09213116019964218 0.050483401864767075 -0.1945924013853073
-0.07072009891271591 0.02606167271733284 0.07641749083995819
0.06748626381158829 -0.07932783663272858 -0.0643947646021843
-0.012270107865333557 -0.0667085200548172 -0.0016869129613041878
-0.06885943561792374 0.0033499179407954216 0.10961031168699265
0.04430684447288513 -0.09422967582941055 -0.3418651819229126
-0.06573578715324402 -0.03660795837640762 -0.022880569100379944
-0.0679675042629242 0.0005674567073583603 -0.0018571652472019196
-0.07431121170520782 -0.037641219794750214 0.002265486866235733
0.07410383224487305 -0.06556524336338043 -0.019425848498940468
-0.0900072380900383 0.04464101418852806 -0.030026432126760483
-0.09888651221990585 0.06983692944049835 0.1043916866183281
-0.0696677640080452 -0.03477444872260094 -0.014513812959194183
-0.06708066165447235 0.07497493177652359 0.018918486312031746
-0.08044573664665222 0.025708407163619995 0.04349859803915024
0.005084367468953133 -0.058106523007154465 0.01848074048757553
-0.08487455546855927 -0.01863362453877926 0.01824823021888733
0.10017524659633636 -0.07553397119045258 -0.143199622631073
0.03520634025335312 -0.06749904155731201 0.09644489735364914
0.025293195620179176 -0.0752575546503067 0.0019318833947181702
0.03286242112517357 -0.0754191130399704 0.07814478129148483
-0.07352467626333237 0.03041098266839981 -0.12594309449195862
-0.0826946496963501 0.044150352478027344 -0.18259260058403015
0.0351024754345417 -0.07085259258747101 0.051634449511766434
-0.052692711353302 -0.06829417496919632 -0.15328887104988098
0.04279259964823723 -0.0768953263759613 -0.02680196240544319
0.1006944477558136 -0.04317105934023857 -0.15332001447677612
0.011010518297553062 -0.05486486852169037 0.07476910203695297
-0.06101983040571213 0.15042445063591003 0.21522529423236847
0.09428933262825012 -0.07242965698242188 -0.13903705775737762
0.04562785476446152 -0.07260176539421082 -0.017948389053344727
0.060875680297613144 -0.07473921775817871 -0.0161272082477808
0.1138182282447815 -0.0016034506261348724 -0.2992270290851593
0.1156388446688652 -0.036127470433712006 -0.03145235776901245
-0.022303752601146698 -0.06577242910861969 0.007617602124810219
-0.07919687032699585 -0.04685219004750252 -0.029971236363053322
0.033290304243564606 -0.07929839938879013 0.15722353756427765
0.11600007116794586 -0.06058115512132645 0.30733442306518555
-0.012257733382284641 0.1352081447839737 0.018188878893852234
0.017380613833665848 -0.08029130846261978 -0.13270941376686096
-0.08932632952928543 0.04618721455335617 0.004784516990184784
-0.08285389095544815 0.025360308587551117 0.038651593029499054
0.05340795964002609 -0.07290684431791306 0.007034022361040115
0.08159569650888443 -0.03584514558315277 -0.08786872029304504
-0.0845310389995575 -0.06030096858739853 0.08939379453659058
-0.007762863300740719 -0.05842731520533562 0.003503185696899891
-0.07486634701490402 0.027743129059672356 0.0878801941871643
0.1338931769132614 -0.06763443350791931 0.24651283025741577
-0.0637495219707489 -0.05856974050402641 0.012504673562943935
-0.11350247263908386 0.07094917446374893 0.04707120731472969
-0.014290682040154934 -0.10138147324323654 -0.2873605191707611
-0.019337501376867294 -0.09265381097793579 -0.049258749932050705
0.08840641379356384 -0.07370936125516891 -0.005169801414012909
-0.0715375691652298 -0.05516190081834793 0.057144198566675186
-0.10209878534078598 0.06775318831205368 0.008881323039531708
-0.07382474094629288 0.026174917817115784 0.032169848680496216
-0.08676261454820633 0.17175409197807312 -0.055743783712387085
-0.04453074187040329 -0.07487157732248306 0.06561671197414398
-0.06930513679981232 0.09945322573184967 0.09575408697128296
0.005812385119497776 -0.08842065930366516 0.009562982246279716
0.07519587129354477 -0.0584934838116169 -0.018381737172603607
-0.06143864989280701 -0.05753852427005768 -0.041464779525995255
-0.05737357959151268 0.1427336037158966 0.28208377957344055
-0.07168425619602203 0.02148505672812462 0.17073345184326172
-0.07011238485574722 0.013002889230847359 0.10004887729883194
-0.06271809339523315 -0.04437633603811264 -0.029831908643245697
-0.11027199029922485 0.06486140191555023 0.31643277406692505
-0.11183099448680878 0.05636178329586983 0.154965341091156
-0.08276454359292984 0.012785149738192558 -0.028038427233695984
-0.06824035942554474 0.019625037908554077 0.05985286086797714
-0.06556139141321182 -0.03494846075773239 0.06145712733268738
0.15851277112960815 -0.04394646733999252 -0.20689016580581665
-0.0802706927061081 -0.060147643089294434 -0.05041799321770668
0.1083911806344986 -0.06987819075584412 0.30513688921928406
-0.053335968405008316 0.09913457185029984 0.13754324615001678
-0.0890449658036232 -0.01971534453332424 0.08369368314743042
-0.0717092901468277 -0.05780830234289169 -0.04750708118081093
-0.05630432069301605 -0.014809466898441315 0.04700254648923874
-0.011474015191197395 -0.05524146184325218 0.008521053940057755
-0.0683065801858902 -0.0157089214771986 -0.009742820635437965
0.005250408314168453 -0.07148951292037964 0.02141650579869747
0.10093814134597778 -0.05643879994750023 -0.00678061880171299
-0.04585425555706024 -0.04895040765404701 -0.03393352031707764
-0.08433404564857483 0.019248351454734802 0.07936403155326843
0.036339789628982544 -0.06949620693922043 0.05733151733875275
-0.044067732989788055 -0.017030425369739532 -0.1327313929796219
0.047212861478328705 -0.07017602026462555 -0.0009994804859161377
-0.07508040964603424 0.01850634440779686 0.007037969306111336
-0.00817430391907692 -0.09033581614494324 0.0072684455662965775
0.12297862768173218 -0.004412367008626461 0.26511919498443604
0.024070430546998978 -0.09713329374790192 -0.2570829391479492
-0.07881416380405426 -0.07841566205024719 0.2047017365694046
-0.06918221712112427 -0.0027237292379140854 0.05382917821407318
-0.08234214037656784 0.02823425456881523 0.0649898424744606
-0.10493136197328568 -0.04794510453939438 -0.10069786757230759
-0.016412710770964622 -0.07269863784313202 0.015070652589201927
-0.07340002804994583 -0.06351365894079208 -0.017466289922595024
-0.07608527690172195 -0.07065427303314209 0.03141600266098976
-0.09391026198863983 0.057349417358636856 0.017332740128040314
-0.1055278405547142 0.09716241806745529 -0.06855997443199158
-0.018080277368426323 -0.10443449020385742 0.12013260275125504
0.05441742390394211 -0.07224219292402267 -0.00012922566384077072
0.09179884195327759 -0.0535542294383049 -0.34864556789398193
-0.07271243631839752 0.011725678108632565 0.05166889727115631
0.09581494331359863 -0.0703144520521164 -0.059081241488456726
0.00042093172669410706 -0.06319171190261841 0.010199597105383873
-0.08643337339162827 0.06823256611824036 0.03168594464659691
-0.026824625208973885 -0.037135444581508636 0.0485682338476181
0.2911003530025482 0.044850803911685944 -0.05743494629859924
-0.11209206283092499 0.0005401968955993652 0.09403031319379807
-0.024335049092769623 -0.046944838017225266 0.12793976068496704
-0.08957341313362122 -0.00021582376211881638 -0.10010214149951935
0.003198498860001564 0.04240565747022629 0.3781837522983551
-0.07276080548763275 0.0117479944601655 0.009989937767386436
0.05842642858624458 -0.07846087217330933 -0.01184171624481678
0.04889323189854622 -0.1047072634100914 0.32488539814949036
-0.05192459374666214 -0.031530581414699554 -0.3524336814880371
0.08580926805734634 -0.07581932097673416 -0.028658807277679443
0.00865054503083229 -0.11510924994945526 -0.11287455260753632
-0.0019845739006996155 -0.06852088868618011 0.0003861701115965843
-0.07031739503145218 0.10812675952911377 0.007028777617961168
0.09075884521007538 -0.04769019037485123 -0.02475588396191597
-0.06698117405176163 -0.06991007924079895 -0.038876358419656754
0.08845654129981995 -0.032714538276195526 -0.00014915131032466888
-0.05151769518852234 0.10666194558143616 0.17802132666110992
0.049147650599479675 -0.06457116454839706 -0.0013860482722520828
-0.062081996351480484 -0.022042781114578247 0.05822867155075073
0.06740250438451767 -0.07648283243179321 0.0025734025985002518
0.053206928074359894 -0.06867894530296326 -0.008187958970665932
-0.061529651284217834 0.01577557809650898 0.0037803808227181435
-0.07057289779186249 0.10792240500450134 -0.031030243262648582
0.036750975996255875 -0.08761801570653915 -0.06356913596391678
-0.03632672131061554 0.09628328680992126 0.20723558962345123
-0.07917685061693192 -0.01564941555261612 -0.026076920330524445
0.002429763786494732 -0.061315253376960754 0.014766517095267773
-0.014511916786432266 -0.06359042972326279 0.024995364248752594
0.20233875513076782 -0.05656121298670769 0.22869373857975006
-0.06083802506327629 -0.05589226260781288 0.027859780937433243
-0.11220966279506683 0.010188175365328789 0.0007788371294736862
0.01590578258037567 -0.07816189527511597 -0.0011605406180024147
0.038814060389995575 -0.07512015104293823 0.038990821689367294
-0.0021302569657564163 -0.06950674206018448 0.1092493012547493
0.08192656934261322 -0.06811384856700897 0.0015591979026794434
0.0025808755308389664 -0.06770284473896027 -3.5276636481285095e-05
-0.05501185357570648 -0.09526553004980087 -0.04832194000482559
-0.0810265988111496 0.014185410924255848 0.23004227876663208
0.05512550100684166 -0.0762515440583229 0.3038017451763153
0.05404520407319069 -0.07751239091157913 0.03816939890384674
0.02274342253804207 0.3395170569419861 0.29483383893966675
-0.08420436829328537 0.06245299056172371 0.07209740579128265
0.026675403118133545 -0.07495644688606262 -0.07093683630228043
0.11970575153827667 -0.07991329580545425 0.2399994283914566
-0.07030223309993744 0.02386489324271679 0.020007967948913574
-0.06726187467575073 -0.04072900861501694 0.026929078623652458
-0.06637434661388397 0.004705242812633514 0.04985784366726875
0.06306292116641998 -0.07671306282281876 0.08623483031988144
-0.06071120500564575 -0.047239284962415695 -0.012655269354581833
-0.07632191479206085 0.1085241287946701 0.009858819656074047
-0.09958695620298386 0.0017645712941884995 -0.23849250376224518
0.09305772185325623 -0.06071719154715538 -0.0010618409141898155
0.08645784854888916 -0.06436432898044586 0.008165726438164711
-0.03157898411154747 -0.06642599403858185 -0.03426356986165047
-0.07364654541015625 0.00841505266726017 0.040011025965213776
-0.0723268911242485 0.06938081234693527 0.11972058564424515
-0.0647025853395462 0.06976396590471268 0.3000160753726959
0.04213603958487511 -0.10723486542701721 -0.04377005249261856
-0.06481105834245682 0.039330266416072845 0.027944330126047134
0.049127645790576935 -0.06998459994792938 0.0012151673436164856
-0.08790700882673264 0.0310443677008152 -0.006868552416563034
-0.0677628144621849 -0.0439736507833004 -0.01571795716881752
0.0002348991110920906 -0.048895567655563354 0.04505661875009537
-0.060239359736442566 -0.013592628762125969 0.12029249221086502
0.029884938150644302 -0.06586571037769318 0.1996963620185852
-0.08190692961215973 0.03642372414469719 0.11004947125911713
-0.07826578617095947 0.0021278802305459976 -0.00034199655055999756
-0.03627642244100571 0.08004162460565567 0.1647282987833023
-0.0563196986913681 0.08571372926235199 0.07755167782306671
-0.054833538830280304 -0.017383232712745667 -0.20225292444229126
-0.009028410539031029 0.14378665387630463 -0.019567545503377914
-0.07264820486307144 0.021562451496720314 0.09123346209526062
-0.036158476024866104 -0.06954709440469742 -0.03490404412150383
-0.03848855569958687 0.10209523141384125 0.012294439598917961
0.0019200313836336136 -0.06394997239112854 0.019835542887449265
-0.06607642024755478 -0.04477091133594513 -0.02291843108832836
-0.010357622057199478 -0.053468745201826096 -0.0005265772342681885
-0.0788499191403389 0.027393251657485962 -0.0168740376830101
0.11882343143224716 -0.06438355147838593 0.08206824958324432
0.03498692810535431 -0.07788658142089844 -0.023058319464325905
0.027638256549835205 -0.04748218506574631 -0.08776198327541351
-0.02502443827688694 -0.0382758192718029 0.14631830155849457
-0.07189461588859558 -0.03561609238386154 -0.029423587024211884
0.009069342166185379 -0.08352600783109665 -0.03667941316962242
-0.08659469336271286 0.040499281138181686 0.04532701522111893
0.1183299571275711 -0.07196270674467087 -0.30394765734672546
0.09858811646699905 -0.06766970455646515 -0.04096119478344917
-0.0346246138215065 -0.09573409706354141 0.028684617951512337
-0.056628428399562836 -0.03799404203891754 0.1340646743774414
-0.1022384911775589 0.06336496025323868 0.27882683277130127
0.06998712569475174 -0.06035654991865158 -0.02049955725669861
-0.08826163411140442 -0.031300805509090424 0.30438095331192017
-0.09094143658876419 0.12878036499023438 0.17489014565944672
0.0528407022356987 -0.07332056015729904 -0.10973420739173889
0.056990113109350204 -0.07565838098526001 -0.028835568577051163
0.07362771034240723 -0.07667416334152222 0.006420625373721123
0.05919840931892395 -0.06296920776367188 0.12956655025482178
-0.07553787529468536 0.0721430554986 0.15874744951725006
-0.10497255623340607 0.013869557529687881 0.006718538701534271
-0.03911037743091583 0.108558289706707 -0.07533259689807892
0.08951088786125183 -0.08230678737163544 0.05738546699285507
0.09272248297929764 -0.061768896877765656 -0.1104823499917984
0.08183037489652634 -0.0636347234249115 -0.017732586711645126
-0.08327023684978485 -0.03862827643752098 -0.29236891865730286
-0.03740696981549263 -0.04624371603131294 -0.0388859361410141
-0.0065719205886125565 -0.08326059579849243 -0.00038096867501735687
-0.025928722694516182 -0.05415773391723633 0.047231510281562805
-0.09671343863010406 0.05756790190935135 0.22789835929870605
-0.10182125121355057 0.11376912891864777 -0.1783973127603531
-0.06530363857746124 -0.03211208060383797 0.19815461337566376
-0.013692347332835197 -0.0997614935040474 0.21008875966072083
-0.07517443597316742 -0.013972477056086063 0.026194419711828232
-0.05935251712799072 -0.021299174055457115 0.07616405934095383
-0.0011903941631317139 -0.06387641280889511 0.017037812620401382
0.10715450346469879 -0.06410418450832367 0.10133513808250427
0.050380244851112366 -0.06518009305000305 -0.13408556580543518
0.015211939811706543 -0.05928714573383331 0.015547356568276882
0.005238667596131563 -0.07387810945510864 0.00966942310333252
-0.05161289870738983 0.009922091849148273 -0.0591043159365654
0.048854194581508636 -0.08269074559211731 0.21822795271873474
-0.013820003718137741 -0.06116161867976189 0.24943245947360992
0.05922675132751465 -0.06779859960079193 -0.01572684571146965
-0.08483181148767471 0.16980741918087006 -0.1545492559671402
-0.026032205671072006 -0.04897874966263771 0.08200395852327347
0.2193264663219452 -0.055295784026384354 0.03173445910215378
-0.023127123713493347 -0.0610748827457428 -0.08904396742582321
-0.06929025799036026 -0.07852698117494583 -0.029061660170555115
-0.11600390821695328 -0.004760026931762695 -0.059337861835956573
-0.06316471099853516 0.07857751101255417 -0.03522910177707672
0.023996219038963318 -0.08836793154478073 -0.09535346925258636
-0.03169579803943634 -0.10730884969234467 0.2498137354850769
0.009377974085509777 0.10115917772054672 0.09572844952344894
-0.06907829642295837 -0.037123046815395355 -0.020333148539066315
-0.048136502504348755 0.008313302882015705 -0.020982658490538597
-0.028655942529439926 -0.054736413061618805 0.019206929951906204
0.05834536999464035 -0.06120153144001961 -0.27642789483070374
0.0004202499985694885 -0.07384303957223892 0.014782873913645744
-0.04931080713868141 0.08900728076696396 -0.2296469658613205
-0.08317825198173523 0.028615737333893776 0.00774406548589468
0.0741470605134964 -0.0685596764087677 -0.007945135235786438
-0.08361171185970306 0.03998624160885811 -0.0052583664655685425
0.014634711667895317 -0.030733752995729446 -0.22270357608795166
-0.06621990352869034 -0.053410522639751434 -0.045918624848127365
-0.07820117473602295 0.045143067836761475 0.02226223610341549
-0.056561440229415894 -0.04879322648048401 0.07743266969919205
-0.08282429724931717 0.04179546236991882 0.10466480255126953
0.0356421023607254 -0.07095357775688171 -0.0019101095385849476
-0.10220623016357422 0.09905393421649933 0.2988239526748657
-0.04663025960326195 -0.08861564844846725 -0.030174177139997482
-0.08503858000040054 -0.07103262841701508 -0.08113675564527512
0.08683181554079056 -0.05738642066717148 -0.017636645585298538
-0.08168700337409973 -0.009757153689861298 -0.007851770147681236
0.1215188279747963 -0.05781032145023346 0.0003501893952488899
-0.062317900359630585 -0.06205010041594505 -0.12183120846748352
-0.10422656685113907 0.05119426175951958 0.08254218101501465
-0.06541513651609421 -0.002337926998734474 0.051493968814611435
0.09562163800001144 -0.06224767863750458 -0.09965004026889801
-0.07656345516443253 -0.036253657191991806 -0.015528633259236813
-0.08414201438426971 0.008954707533121109 0.06072394922375679
-0.1155838891863823 0.02821866050362587 -0.032472699880599976
-0.06000299006700516 0.0029957741498947144 -0.304590106010437
-0.07265070825815201 0.002678200602531433 0.2751370966434479
0.07332240045070648 -0.06345270574092865 -0.019119441509246826
-0.05036396160721779 0.058838773518800735 -0.19993074238300323
0.09096819907426834 -0.05310005694627762 -0.02257329225540161
-0.06294085830450058 -0.08976549655199051 0.3457883298397064
0.017246680334210396 -0.07381843030452728 0.11188117414712906
-0.08003924041986465 -0.04766567796468735 0.002133430913090706
-0.06875161826610565 0.016970844939351082 0.01220444031059742
0.09880483895540237 -0.06968303769826889 7.320195436477661e-07
-0.017296232283115387 -0.05005832016468048 -0.009677384048700333
-0.08240390568971634 -0.015235774219036102 0.07651492953300476
-0.07484391331672668 0.11394797265529633 0.3103504180908203
-0.10154224187135696 -0.01349133811891079 0.3473512828350067
0.06605056673288345 -0.06983564794063568 -0.06661231815814972
0.028983432799577713 -0.08284122496843338 -0.20758332312107086
-0.07623772323131561 0.005149258300662041 0.013411074876785278
-0.032494112849235535 -0.08076412975788116 -0.20901265740394592
0.04601392149925232 -0.07214526832103729 -0.036391790956258774
0.027989856898784637 -0.08117282390594482 0.3244730532169342
-0.008576849475502968 -0.061024222522974014 -0.006665701977908611
0.06342475861310959 -0.043455109000205994 0.2133152186870575
-0.01638747565448284 -0.05202659219503403 -0.04111216217279434
0.008479580283164978 -0.07714404165744781 -0.030535291880369186
-0.07791280746459961 0.027256937697529793 0.06832487136125565
0.05632694065570831 -0.07829296588897705 0.03787959739565849
0.10317087918519974 -0.05932215601205826 -0.019583744928240776
-0.12824247777462006 -0.01840110309422016 0.2793315351009369
-0.06498978286981583 0.11055032163858414 0.003237464465200901
-0.029912712052464485 0.11416035890579224 0.06450218707323074
-0.05995729938149452 -0.08179878443479538 -0.0605330690741539
-0.08077944070100784 -0.05859631299972534 0.029982060194015503
-0.09104577451944351 0.09168393164873123 -0.007882056757807732
-0.103108249604702 -0.024085119366645813 0.027527745813131332
0.012859784066677094 -0.08187983930110931 0.02427857555449009
0.108702152967453 -0.0843481719493866 -0.12426526844501495
-0.07011359930038452 -0.03212940692901611 0.0412227064371109
-0.07574225217103958 0.020507775247097015 0.05501836538314819
0.09087717533111572 -0.0625237300992012 -0.028404545038938522
-0.06895379722118378 0.008438866585493088 0.044991910457611084
0.07046141475439072 -0.07378172129392624 -0.030547142028808594
0.06137315183877945 -0.07993823289871216 -0.03857715055346489
-0.08432808518409729 0.03772638365626335 0.03168519586324692
-0.0422704741358757 0.18467839062213898 0.0579935759305954
-0.06757182627916336 0.11591333895921707 0.07080405205488205
0.09093163162469864 -0.07312564551830292 0.047181546688079834
0.10520092397928238 -0.07379154860973358 -0.014730822294950485
-0.04298672080039978 -0.08229942619800568 -0.24746012687683105
-0.07386919856071472 -0.04259653761982918 -0.018370971083641052
-0.0859796553850174 -0.042750369757413864 0.009766214527189732
0.045304104685783386 -0.07875711470842361 -0.03676218166947365
-0.059967901557683945 -0.027778325602412224 -0.04381847381591797
-0.08897706866264343 0.03655518591403961 0.04179954156279564
0.011429398320615292 -0.08763814717531204 -0.09051468968391418
0.050081897526979446 -0.08223924040794373 -0.10288657248020172
0.07610830664634705 -0.06223781779408455 -0.014615500345826149
0.07979290932416916 -0.09287707507610321 0.1372441053390503
0.056016646325588226 -0.10960925370454788 0.37579262256622314
0.10051194578409195 -0.07105462998151779 0.010444780811667442
-0.0607270672917366 -0.019748039543628693 0.00012903288006782532
-0.07024161517620087 0.0006598588079214096 0.09027417749166489
0.030743781477212906 -0.0698743388056755 -0.030204907059669495
0.16686193645000458 -0.002690771594643593 -0.07114754617214203
-0.08980585634708405 -0.049545370042324066 0.06876693665981293
0.07844657450914383 -0.062245868146419525 -0.028112361207604408
-0.09715243428945541 -0.02137063257396221 0.03157799318432808
-0.04448629170656204 -0.061350490897893906 -0.1552339345216751
0.11726987361907959 -0.05467723309993744 -0.04891291260719299
0.019291337579488754 -0.08512066304683685 -0.048029638826847076
0.11007615923881531 -0.058678798377513885 -0.032286085188388824
0.10465161502361298 -0.06312035024166107 -0.012184624560177326
0.05549192056059837 -0.06507615000009537 0.05401204153895378
0.045478999614715576 -0.051091268658638 0.036026135087013245
-0.0910317450761795 0.1368616670370102 0.3827166259288788
-0.097203828394413 0.03755411133170128 0.13095735013484955
0.13492122292518616 -0.06168381869792938 0.05000084266066551
-0.09008777886629105 -0.03917129337787628 0.2166728675365448
0.05931621417403221 -0.05656571313738823 0.0909014642238617
-0.06951203942298889 -0.056187331676483154 -0.07101018726825714
-0.05020727589726448 -0.07528794556856155 -0.19672563672065735
-0.08585404604673386 0.09440570324659348 0.04442848265171051
-0.07766401022672653 0.13646180927753448 0.06641335040330887
-0.10987228155136108 -0.029725154861807823 0.11422038078308105
0.012967173010110855 -0.05173599347472191 0.2665835916996002
-0.05632944032549858 -0.024721143767237663 -0.009921961463987827
-0.0961342379450798 -0.0052184839732944965 -0.03717648237943649
0.05160831660032272 -0.06875301897525787 -0.019977567717432976
0.013878144323825836 -0.067652627825737 -0.07220947742462158
-0.06119120121002197 -0.0897224023938179 -0.006586296483874321
0.12034796178340912 -0.0625070184469223 0.022721990942955017
0.029993338510394096 -0.07706499099731445 0.005092691630125046
0.11163826286792755 -0.053552575409412384 -0.006899748928844929
-0.06060134619474411 0.00900973379611969 -0.12664221227169037
-0.050324972718954086 0.055076148360967636 -0.048126790672540665
0.29399722814559937 0.05748274549841881 0.09106164425611496
0.08989385515451431 -0.05548460781574249 0.014166823588311672
-0.0861036479473114 0.03857501596212387 0.02592797577381134
0.09109670668840408 -0.059132106602191925 -0.001624219585210085
0.08653490245342255 -0.06395978480577469 0.159037247300148
-0.1109699010848999 -0.0134713314473629 -0.17089878022670746
-0.05758722499012947 -0.07611341774463654 -0.050327762961387634
-0.060710810124874115 -0.0198283102363348 -0.013595386408269405
-0.07327891141176224 -0.05451638996601105 0.07043959945440292
0.03808799386024475 -0.08780886977910995 -0.13823173940181732
-0.07533930242061615 0.017367267981171608 0.013695040717720985
-0.10004619508981705 0.03922727331519127 0.030718354508280754
-0.10479271411895752 0.04807385429739952 0.010777201503515244
0.052032556384801865 -0.06689900159835815 -0.014137780293822289
-0.04267694801092148 0.15538136661052704 -0.08928601443767548
-0.07101282477378845 -0.05007806420326233 -0.033316005021333694
-0.09439790993928909 0.028256770223379135 -0.008148127235472202
-0.09013593196868896 0.07212682068347931 -0.16938959062099457
0.10809679329395294 -0.05060706287622452 -0.011661089956760406
-0.07288786768913269 0.03648616373538971 0.05960298329591751
0.10481026768684387 -0.0564836747944355 -0.004968931898474693
-0.018258681520819664 -0.06347187608480453 0.01410072110593319
