-0.09759379923343658 0.0845489576458931 -0.028299637138843536
0.14152148365974426 -0.09398923069238663 -0.09064881503582001
0.10452219843864441 -0.026744607836008072 -0.005018583498895168
0.15637731552124023 -0.07749217748641968 0.0004854593425989151
-0.02519189566373825 0.10446272045373917 0.13182084262371063
0.11509804427623749 -0.036762408912181854 0.26325827836990356
-0.0020306725054979324 -0.10802564024925232 0.10115473717451096
-0.1320076733827591 0.14216236770153046 0.010106106288731098
-0.08602090179920197 0.02709735371172428 0.07640508562326431
-0.013094039633870125 -0.06861980259418488 0.04934973642230034
-0.07637212425470352 -0.06326404213905334 0.12086211889982224
-0.037837397307157516 -0.05124286189675331 0.047202218323946
0.015163641422986984 -0.049138590693473816 -0.04209066554903984
-0.06208793818950653 -0.019594542682170868 -0.02801497094333172
-0.09589222818613052 0.10950300842523575 0.12329232692718506
-0.08798642456531525 -0.030362341552972794 0.0411732979118824
-0.090036541223526 0.08698919415473938 -0.16787263751029968
-0.08030866831541061 0.023054594174027443 -0.16371233761310577
-0.04099973291158676 0.12458915263414383 -0.05358533933758736
0.1079033687710762 -0.08040324598550797 -0.07777628302574158
-0.08730321377515793 0.10044299066066742 0.34427982568740845
0.03442980721592903 -0.04241332784295082 -0.4687272310256958
0.06285357475280762 -0.09459613263607025 -0.004374805837869644
-0.05786929652094841 0.1420060247182846 0.11967022716999054
-0.10641423612833023 -0.09970466047525406 0.20829905569553375
0.1028214767575264 -0.09861104190349579 -0.10222208499908447
0.050407037138938904 -0.08141490817070007 0.06163090467453003
-0.10159538686275482 0.06095210835337639 0.108955979347229
0.09005355089902878 -0.08030091971158981 0.11102604866027832
0.11518590897321701 -0.10266909003257751 -0.21686045825481415
-0.026313217356801033 -0.07319914549589157 -0.02171473205089569
-0.10083036869764328 0.060403987765312195 0.1109781265258789
0.10524505376815796 -0.09436440467834473 -0.0048861270770430565
0.0008232779800891876 -0.0705709457397461 0.07907700538635254
-0.058343738317489624 0.0753108337521553 0.017004460096359253
0.08159306645393372 -0.10188965499401093 0.09416841715574265
0.010240606963634491 0.37447643280029297 0.0841020867228508
0.04734649509191513 -0.10912647843360901 -0.14670176804065704
-0.022121034562587738 -0.08600369840860367 0.03287126496434212
0.010327305644750595 -0.09468784183263779 -0.1070338785648346
-0.11097726970911026 -0.014041072688996792 -0.016906950622797012
-0.11764203757047653 -0.021769188344478607 -0.261955201625824
0.10517032444477081 -0.07842427492141724 -0.01340058259665966
-0.015307308174669743 -0.10705451667308807 0.3552766740322113
0.18747247755527496 -0.11467722803354263 0.20865821838378906
-0.04455093666911125 0.13117235898971558 -0.09843839704990387
-0.07767418026924133 0.014589827507734299 -0.020122647285461426
-0.00827205739915371 -0.057788509875535965 0.10231520235538483
-0.09452101588249207 0.11209437251091003 0.04894856736063957
-0.04847642034292221 -0.038098838180303574 0.11644228547811508
-0.05427323281764984 0.16631120443344116 -0.022462105378508568
-0.08681335300207138 0.008332090452313423 0.09542758762836456
-0.11170130223035812 0.1421099454164505 0.18364351987838745
-0.0818723812699318 0.08726368844509125 0.025403382256627083
0.11159749329090118 -0.052430182695388794 0.010205499827861786
-0.09256862848997116 -0.03170180693268776 -0.05716867372393608
-0.08463798463344574 0.10161428153514862 -0.03184523060917854
0.10904103517532349 -0.08281157910823822 -0.0005518384277820587
-0.018558666110038757 -0.10065717995166779 0.03150367736816406
0.18750058114528656 -0.026882480829954147 0.23112134635448456
0.12439414858818054 -0.093002550303936 0.18159662187099457
-0.0837346687912941 0.06407792866230011 -0.009740050882101059
-0.036920588463544846 -0.0606798492372036 0.11259505897760391
0.07597090303897858 -0.10579471290111542 -0.03622554615139961
-0.08748617023229599 0.0857660174369812 0.09445469081401825
-0.06004107743501663 -0.029223334044218063 0.023427501320838928
-0.11304150521755219 -0.06500532478094101 0.06301383674144745
-0.08241225779056549 0.12357857823371887 0.0039248988032341
-0.011771290563046932 -0.08741006255149841 -0.12159624695777893
-0.07547502219676971 0.13293462991714478 -0.04914762079715729
-0.11274432390928268 0.05845818296074867 0.2832038700580597
-0.08231228590011597 0.14305400848388672 -0.15588752925395966
-0.07739048451185226 0.03209158778190613 -0.14205561578273773
-0.11726118624210358 0.12200741469860077 -0.0009513702243566513
-0.10552465170621872 0.06064049154520035 0.16144075989723206
0.11482681334018707 -0.0631234422326088 0.0613473616540432
-0.08366066217422485 0.122111476957798 -0.07820623368024826
-0.09464111924171448 0.12239096313714981 -0.09384559839963913
0.11515339463949203 -0.056466177105903625 -0.3164534866809845
0.17531242966651917 -0.09287682175636292 -0.19691888988018036
0.11197636276483536 -0.0480320006608963 -0.03719160705804825
0.0647510215640068 -0.0711667537689209 0.07876020669937134
-0.07662060856819153 -0.08293168246746063 0.36467018723487854
0.06245237588882446 -0.06711617857217789 -0.2785704433917999
-0.06406286358833313 0.12724147737026215 0.14426669478416443
0.013673283159732819 -0.0711594820022583 -0.0050136493518948555
-0.08239693939685822 0.03204507380723953 0.03606733679771423
0.06480935961008072 -0.04093349725008011 -0.21555420756340027
0.00928264856338501 -0.10749088227748871 0.0944376140832901
0.04231005907058716 -0.09032538533210754 0.0076460037380456924
-0.05761367827653885 0.13025936484336853 -0.21135231852531433
-0.057510215789079666 -0.05352272838354111 0.1152052953839302
-0.012933444231748581 -0.08838052302598953 0.06289136409759521
-0.014978599734604359 0.03845563903450966 0.22778013348579407
-0.028430772945284843 -0.04851614683866501 0.18341313302516937
0.06589280813932419 -0.11416299641132355 -0.005611971952021122
0.027490049600601196 -0.08853044360876083 -0.0304145198315382
-0.011681612581014633 -0.10868923366069794 0.045973923057317734
0.025900408625602722 -0.08401481062173843 0.030992012470960617
-0.07273340225219727 0.10949760675430298 -0.18931981921195984
0.13781055808067322 -0.07813205569982529 0.017782412469387054
0.1002323180437088 -0.08674228936433792 0.013460172340273857
-0.0017217658460140228 -0.07222656905651093 0.05463901162147522
-0.07596199214458466 0.017907366156578064 -0.05118148773908615
-0.10949522256851196 -0.06917637586593628 -0.11751910299062729
0.12679530680179596 -0.022611912339925766 -0.07787889987230301
-0.04349600523710251 -0.0505341999232769 0.36674875020980835
-0.04039318487048149 -0.12475220113992691 0.14305907487869263
-0.07021141797304153 -0.05242724344134331 -0.1484840363264084
-0.04930076375603676 0.0550529770553112 0.11621331423521042
0.10978464037179947 -0.07046378403902054 -0.012358271516859531
0.0739092230796814 -0.054708465933799744 -0.018330298364162445
0.07179264724254608 -0.005958270281553268 -0.10200917720794678
-0.08942356705665588 -0.05100768432021141 0.09451690316200256
-0.056932926177978516 0.03179110959172249 -0.18743093311786652
-0.07373605668544769 -0.060322266072034836 0.0506533645093441
0.0381866917014122 -0.06911589205265045 0.06425698846578598
-0.1179807260632515 0.01217527687549591 0.10369282215833664
0.007293090224266052 -0.11808450520038605 -0.3577814996242523
-0.08550163358449936 -0.01912103407084942 0.09714897722005844
0.1467173993587494 -0.09930019080638885 0.3731805980205536
0.12010747194290161 -0.06676756590604782 -0.03631821274757385
0.03593272343277931 -0.08194606006145477 0.02224087342619896
-0.09270749241113663 -0.04439906030893326 0.03553429991006851
0.07767489552497864 -0.07618789374828339 0.04793427512049675
0.06263427436351776 -0.07622267305850983 0.05569437891244888
-0.009554591961205006 -0.05706249177455902 0.02885470911860466
-0.06350449472665787 -0.07714502513408661 0.1635567545890808
-0.08029099553823471 -0.07339851558208466 0.01891910657286644
-0.10755878686904907 0.07414351403713226 0.08083607256412506
0.11654779314994812 -0.08144348859786987 0.21171961724758148
0.19757650792598724 -0.021188586950302124 0.06434042751789093
0.10204705595970154 -0.04313157498836517 0.14958912134170532
0.1000179797410965 -0.09773687273263931 -0.03195507824420929
0.02465258166193962 -0.08953080326318741 0.09345228970050812
0.02225307747721672 -0.08818089962005615 0.1717177927494049
0.05111148953437805 -0.10495375096797943 -0.05110577493906021
0.009360704571008682 -0.06032245606184006 0.15289898216724396
-0.0633370578289032 -0.07417549192905426 -0.018886329606175423
-0.06250276416540146 -0.07746724784374237 0.2866128981113434
-0.055456917732954025 -0.04542023688554764 -0.021080320701003075
-0.09181670844554901 0.01828264445066452 -0.20603877305984497
-0.052696555852890015 -0.042881179600954056 0.2625772953033447
-0.07935139536857605 -0.023098696023225784 -0.09252229332923889
-0.12041252851486206 0.0038304775953292847 -0.04884801805019379
-0.08849756419658661 0.11318586021661758 -0.08041838556528091
-0.08796989172697067 0.016935650259256363 0.04509328678250313
-0.047410182654857635 -0.09473024308681488 -0.09278448671102524
-0.032866138964891434 -0.08603491634130478 0.0017660092562437057
-0.0628732219338417 0.025479869917035103 0.022527743130922318
0.11923851072788239 -0.07571768015623093 -0.13930773735046387
0.2943502366542816 -0.09907585382461548 0.13156309723854065
-0.09697937965393066 0.036411821842193604 -0.03005755878984928
-0.11129854619503021 0.03588288277387619 -0.1990676373243332
-0.08731210976839066 -0.06981005519628525 -0.06744358688592911
-0.08246967196464539 -0.03349139913916588 -0.20208293199539185
0.07194099575281143 -0.08037669211626053 0.008089061826467514
-0.03814876079559326 -0.03743663430213928 -0.03454603999853134
-0.044563692063093185 -0.10966300964355469 -0.06969811022281647
-0.07934699207544327 -0.07251299917697906 0.06402374804019928
0.04867043346166611 -0.045324988663196564 -0.025126270949840546
-0.04271377995610237 -0.0927136093378067 0.20103007555007935
0.030976518988609314 -0.09981726855039597 -0.1025756224989891
-0.07307381182909012 0.03196647763252258 -0.3583652675151825
-0.008189026266336441 -0.08876127749681473 0.0003549400717020035
0.05874813348054886 -0.10639788955450058 -0.01817004568874836
-0.012269604951143265 -0.05186227709054947 0.09913916885852814
0.03227977454662323 -0.07803164422512054 0.05950910970568657
0.034172989428043365 -0.09203733503818512 0.3888234496116638
-0.07316791266202927 -0.0987173318862915 0.04800596833229065
-0.045546434819698334 -0.12755557894706726 0.3203355669975281
-0.058227792382240295 -0.004394290968775749 0.007971953600645065
-0.08263643085956573 -0.024342374876141548 0.04511234909296036
0.06232042610645294 -0.08287480473518372 -0.11128906160593033
-0.0303131602704525 0.07792095839977264 -0.24968375265598297
-0.073557548224926 0.10205115377902985 0.013487113639712334
-0.10080550611019135 0.16753004491329193 -0.2174004167318344
0.06635511666536331 -0.07490895688533783 -0.07110477983951569
0.10634870827198029 -0.08168674260377884 -0.05128931254148483
-0.039580974727869034 -0.10149775445461273 0.015294663608074188
-0.04559529572725296 0.006304911337792873 -0.18195120990276337
0.046017829328775406 -0.06988254189491272 0.012332098558545113
0.11019176244735718 -0.09795701503753662 0.016106531023979187
0.1298682540655136 -0.09524771571159363 0.02704404480755329
-0.09124775230884552 -0.06513133645057678 0.0356263630092144
-0.023707658052444458 -0.04206196218729019 0.012354675680398941
0.06738267093896866 -0.07069064676761627 0.012130098417401314
0.12933552265167236 -0.10169766843318939 -0.019387289881706238
-0.08435238897800446 -0.0025783292949199677 0.09854644536972046
0.0005456870421767235 -0.05730566382408142 0.12265097349882126
-0.09277477115392685 0.2173096388578415 0.16366930305957794
-0.06115902215242386 0.036241527646780014 -0.009236373007297516
0.14276953041553497 -0.025729086250066757 0.004042387008666992
0.2320902943611145 -0.08437468111515045 0.32095855474472046
-0.09242692589759827 0.03508728742599487 0.057567548006772995
-0.10298430174589157 -0.02132292091846466 0.0085474643856287
0.1026817038655281 -0.11300496011972427 0.020931866019964218
-0.09123655408620834 -0.01621740311384201 0.04255649074912071
-0.1126275286078453 0.10681095719337463 -0.0289317574352026
0.07707158476114273 -0.09772281348705292 -0.04153493791818619
0.21628674864768982 -0.0064181555062532425 0.5087236762046814
-0.12172821909189224 -0.06381454318761826 -0.038758330047130585
-0.08673412352800369 0.22778119146823883 0.27420154213905334
-0.10487278550863266 0.07121291756629944 -0.06714382767677307
0.0048074182122945786 -0.06843441724777222 -0.21531563997268677
-0.08146405220031738 -0.07226674258708954 0.16239258646965027
0.06284083425998688 -0.07074117660522461 0.14635244011878967
-0.007705367635935545 -0.11270260810852051 -0.02958105504512787
0.004912060685455799 -0.09884331375360489 -0.17483118176460266
-0.017837364226579666 -0.006173558533191681 -0.2827288508415222
-0.03583943471312523 -0.044954970479011536 -0.007000233978033066
0.02377201057970524 -0.09524142742156982 0.030120203271508217
-0.12398333847522736 0.21219834685325623 0.16993488371372223
-0.06332801282405853 -0.008697908371686935 -0.031124528497457504
0.12042030692100525 -0.08007200807332993 -0.28175944089889526
0.03135072812438011 -0.07294595241546631 0.053783051669597626
-0.007066427730023861 -0.04467765986919403 -0.1873874068260193
-0.03919561952352524 -0.06675305962562561 -0.022569948807358742
-0.058893464505672455 -0.07969246059656143 0.07872456312179565
-0.005226317793130875 -0.08725307881832123 -0.00015380606055259705
0.06200800836086273 -0.05967864394187927 -0.028749803081154823
-0.06770181655883789 0.09091193228960037 0.09643471240997314
0.08661523461341858 -0.11762653291225433 -0.06807553768157959
-0.025992605835199356 0.3236991763114929 -0.01383177749812603
-0.11874739825725555 0.09013816714286804 -0.05057626962661743
-0.01987011358141899 -0.08058341592550278 0.15972886979579926
-0.009046584367752075 -0.07097618281841278 0.020868709310889244
-0.08473421633243561 0.05273737013339996 0.007592412643134594
-0.09633280336856842 0.09438739717006683 0.0006201360374689102
0.06536467373371124 -0.06561943888664246 0.06135118007659912
-0.046169355511665344 -0.08122409880161285 -0.06309876590967178
-0.08025822788476944 0.035447701811790466 -0.049838628619909286
-0.09889920800924301 0.03833029419183731 0.0608249306678772
-0.08308488875627518 0.030213501304388046 0.07189029455184937
-0.07411378622055054 -0.11617513000965118 -0.026264581829309464
-0.07537931203842163 -0.06243613362312317 0.08105623722076416
-0.11207320541143417 -0.041428081691265106 -0.12954989075660706
-0.08101474493741989 0.16528458893299103 0.0403616838157177
-0.09115783870220184 -0.020535960793495178 0.07480308413505554
-0.10297801345586777 0.0015848902985453606 0.001963483402505517
-0.10144560039043427 0.0004960959777235985 0.10709033161401749
-0.07729010283946991 0.11610464751720428 -0.00022429227828979492
-0.10624159872531891 -0.08228349685668945 0.10614895820617676
0.03194849193096161 -0.10479768365621567 -0.010679831728339195
-0.08409544825553894 -0.017744317650794983 0.14702685177326202
0.061267368495464325 -0.09408197551965714 -0.041705697774887085
-0.06301619857549667 0.01590791530907154 -0.0925728902220726
-0.11808815598487854 0.028862062841653824 -0.1490393877029419
0.04694772884249687 -0.07131405919790268 -0.014320679008960724
0.12898528575897217 -0.050141289830207825 0.0020895078778266907
-0.023784033954143524 0.014267691411077976 -0.07572617381811142
-0.09885090589523315 -0.052104514092206955 0.011166512966156006
-0.028787007555365562 0.06272782385349274 -0.3965797424316406
-0.0932285264134407 0.16958723962306976 0.012920194305479527
-0.015014350414276123 -0.03621448576450348 0.14196503162384033
-0.09436627477407455 -0.05208392068743706 -0.028424570336937904
0.07486028969287872 -0.08449628949165344 0.3079719543457031
-0.047910623252391815 0.07809856534004211 -0.10843756794929504
0.10302939265966415 -0.09584622085094452 -0.13191305100917816
-0.1266268789768219 0.03137177601456642 -0.0636911690235138
-0.017327113077044487 -0.02842584438621998 0.2627389132976532
-0.08676430583000183 -0.06353919208049774 -0.06384926289319992
0.11514659225940704 -0.06844916939735413 -0.024383850395679474
0.05381361395120621 -0.1192273497581482 0.22615954279899597
0.1639106124639511 -0.08128531277179718 0.16976746916770935
0.12666858732700348 -0.049765586853027344 0.028609516099095345
-0.02649490162730217 -0.06847486644983292 -0.01883040741086006
-0.056932296603918076 -0.03732585534453392 -0.015729406848549843
-0.08573117852210999 0.001474045217037201 0.0709938183426857
0.19531187415122986 -0.07425665855407715 0.07318639755249023
0.009060187265276909 -0.06985173374414444 -0.04857244715094566
-0.12030445039272308 0.027063338086009026 0.1733938306570053
0.1164090558886528 -0.09450611472129822 0.031065069139003754
0.009109776467084885 -0.09072007238864899 0.03496941179037094
-0.08746901154518127 0.095173679292202 0.16427162289619446
0.02526715397834778 -0.05440344288945198 -0.15447857975959778
-0.03142352029681206 -0.09737549722194672 0.006898846477270126
-0.1063525527715683 -0.03645483776926994 0.017693843692541122
0.05374358594417572 -0.1175314411520958 -0.05539853125810623
0.04651951789855957 -0.08092683553695679 -0.008074883371591568
0.12215596437454224 -0.08164934068918228 -0.0441041998565197
-0.0032050516456365585 -0.05653148517012596 0.05972452461719513
-0.11166109889745712 0.10148141533136368 -0.17442822456359863
0.028022831305861473 -0.08508649468421936 -0.01049131155014038
0.12339475750923157 -0.08992098271846771 0.0004978049546480179
0.35464945435523987 0.08015559613704681 0.2931808829307556
-0.014349202625453472 -0.0028170403093099594 0.004410333465784788
0.08928811550140381 0.0048006754368543625 -0.21135441958904266
0.18362361192703247 -0.05735142156481743 -0.0950070172548294
-0.0709388256072998 0.14255274832248688 0.07820075750350952
-0.022709302604198456 -0.07178781926631927 0.03987938165664673
-0.04824293404817581 -0.056199900805950165 -0.10091669857501984
-0.03797192499041557 -0.04805690795183182 -0.028744356706738472
0.05633459985256195 -0.07129982113838196 0.0023422078229486942
-0.08616627752780914 -0.016169153153896332 -0.05354810133576393
0.10209184139966965 -0.08102445304393768 -0.14719611406326294
0.07192377746105194 -0.10342463105916977 0.03420286625623703
0.04849615693092346 -0.11758629977703094 -0.021498190239071846
-0.04384122043848038 -0.06605588644742966 -0.04013248533010483
-0.06912931799888611 -0.09281466901302338 -0.049857527017593384
-0.07809150218963623 0.00492914579808712 0.10168321430683136
-0.024020064622163773 -0.08060302585363388 -0.13919410109519958
-0.027871698141098022 -0.06478871405124664 0.03803912177681923
0.043446771800518036 -0.11933350563049316 -0.2179878205060959
-0.025910507887601852 -0.08313203603029251 0.048508577048778534
-0.07570281624794006 -0.09933449327945709 -0.19451604783535004
-0.03885168582201004 -0.06009981036186218 0.014700117520987988
-0.11696476489305496 -0.010735677555203438 -0.19581195712089539
-0.07988744229078293 0.06964883953332901 -0.254928857088089
-0.056769996881484985 0.11808773875236511 -0.1115928441286087
-0.010227384977042675 -0.10238915681838989 -0.058429159224033356
-0.11525601148605347 0.005284767597913742 0.08151490986347198
-0.07273267209529877 -0.08516614139080048 -0.07588721811771393
-0.0031438060104846954 0.04976429417729378 -0.47586292028427124
-0.06538797914981842 0.057844050228595734 -0.13898104429244995
-0.05812983959913254 -0.03666678071022034 -0.02158498950302601
-0.0536484532058239 -0.07113570719957352 -0.33732926845550537
0.017302796244621277 -0.075071781873703 0.0939045250415802
0.067561075091362 -0.10531188547611237 0.04467800259590149
0.04212508350610733 -0.09225518256425858 -0.10940628498792648
0.06256040185689926 -0.08254984021186829 0.027329372242093086
-0.04336278885602951 -0.08414379507303238 -0.19148381054401398
0.005511639639735222 -0.0656309649348259 0.04992683604359627
-0.1028899997472763 -0.05840906500816345 0.37760013341903687
-0.03424311429262161 -0.09868495911359787 -0.029190510511398315
0.05747975409030914 -0.09866134077310562 0.11990644782781601
-0.08975350111722946 -0.0013750754296779633 0.07153674960136414
-0.016704991459846497 -0.012104898691177368 -0.02282063104212284
0.10226655751466751 -0.10123315453529358 -0.022185904905200005
0.06995071470737457 -0.09389674663543701 -0.08714021742343903
-0.09182567149400711 0.002243250608444214 -0.12608352303504944
-0.005891691893339157 -0.09813391417264938 -0.06107620522379875
-0.06239323318004608 -0.05804118514060974 0.10984362661838531
0.018297413364052773 -0.07567904144525528 0.1330433487892151
-0.046726666390895844 -0.10911652445793152 0.11469005048274994
0.05578097328543663 -0.05995006486773491 0.016309084370732307
0.09262777119874954 -0.10378904640674591 -0.21717990934848785
-0.0649929866194725 -0.022182438522577286 -0.12488210201263428
-0.1310284584760666 0.055396612733602524 0.019093994051218033
-0.09596241265535355 -0.07767628878355026 -0.037668269127607346
-0.07213520258665085 0.02016403153538704 -0.05970590561628342
-0.04412905126810074 -0.06575943529605865 -0.01797102950513363
-0.06907124817371368 -0.03887245059013367 -0.09512025862932205
-0.04678242281079292 0.06447737663984299 -0.19548243284225464
0.007403822615742683 -0.12853828072547913 0.33489710092544556
0.07856693118810654 -0.07777827233076096 0.01384028047323227
0.041794613003730774 -0.0815974771976471 0.05746811628341675
0.09118394553661346 -0.07421103119850159 -0.00827106088399887
-0.09195367246866226 -0.07094543427228928 -0.1257033497095108
0.0836506113409996 -0.06166362389922142 0.08481473475694656
-0.12637846171855927 -0.040080927312374115 0.07846617698669434
0.2223605215549469 -0.07970341295003891 0.06521888077259064
0.03734749183058739 -0.09966832399368286 -0.03273608162999153
-0.03219344839453697 -0.031640324741601944 -0.294399231672287
-0.053834766149520874 0.10458792746067047 -0.029285505414009094
-0.05991097167134285 0.1119690015912056 -0.056130945682525635
-0.024825897067785263 0.11521688103675842 -0.034088317304849625
0.040722716599702835 -0.04762439429759979 0.06177482381463051
-0.038065310567617416 -0.0681510642170906 0.0667281299829483
-0.0018710435833781958 -0.06945911049842834 0.22373150289058685
0.06740254163742065 -0.10400746017694473 0.0071762362495064735
-0.12365777790546417 0.04687999561429024 0.013257810845971107
0.015306716784834862 -0.12722787261009216 0.08979108929634094
-0.0736340582370758 0.015943223610520363 0.010574291460216045
0.02748660370707512 -0.10925748944282532 -0.09877599775791168
-0.12046321481466293 0.028472956269979477 -0.09166385233402252
-0.012278547510504723 0.033264853060245514 0.03705054521560669
-0.09192033112049103 -0.044484421610832214 -0.012243857607245445
-0.09121108055114746 0.19455336034297943 -0.09339338541030884
-0.06454844772815704 -0.030705390498042107 0.12098361551761627
0.10778650641441345 -0.0663885548710823 -0.04552512615919113
0.10126151889562607 -0.03331639617681503 0.022280260920524597
0.11913392692804337 -0.06324999779462814 0.017451385036110878
0.020864252001047134 -0.10248664021492004 -0.03676721453666687
0.049935273826122284 -0.06946047395467758 -0.08732721209526062
0.061205942183732986 -0.08998876810073853 0.200650155544281
-0.06989941745996475 0.09114143252372742 0.14498507976531982
-0.07833391427993774 -0.011957591399550438 0.07955427467823029
-0.0410928800702095 0.10129523277282715 0.12380653619766235
0.006323132663965225 -0.09912396222352982 -0.014290657825767994
-0.0344204306602478 -0.09048541635274887 -0.0008180085569620132
-0.07271159440279007 -0.09081227332353592 0.08682671934366226
0.0012985807843506336 -0.13007283210754395 -0.06178801879286766
0.03857558220624924 -0.11732684820890427 -0.017085611820220947
-0.07061132043600082 0.12256947159767151 0.057727329432964325
-0.09165409207344055 -0.02328684739768505 0.023580487817525864
-0.11134602129459381 0.03164751082658768 -0.029267434030771255
-0.027285678312182426 -0.07287874072790146 0.036735184490680695
0.11102816462516785 -0.017606932669878006 -0.01945018582046032
-0.03222082927823067 -0.058936722576618195 0.050252921879291534
0.030641699209809303 -0.05461936444044113 0.12195785343647003
-0.005263013299554586 -0.12001103162765503 0.0443747416138649
-0.03712483495473862 0.045023106038570404 0.12455390393733978
-0.020836075767874718 -0.06721605360507965 0.3101993501186371
-0.029357871040701866 -0.09753576666116714 -0.1275169402360916
0.03799153491854668 -0.05464562773704529 0.09890417754650116
-0.11262364685535431 0.01811433956027031 0.3909241557121277
0.007164996117353439 -0.10858365893363953 -0.06103420630097389
-0.07446315139532089 -0.0030757393687963486 0.1242603212594986
-0.07133132964372635 0.005492672324180603 -0.12310655415058136
-0.11643540859222412 -0.08348021656274796 -0.12883703410625458
-0.06731249392032623 0.00992567464709282 -0.23244161903858185
-0.08092829585075378 0.029642807319760323 -0.04019990935921669
0.002070024609565735 -0.09420135617256165 -0.09989240020513535
-0.021637853235006332 -0.041914939880371094 0.0013116756454110146
-0.09397241473197937 0.06716950982809067 0.07799986004829407
0.08853104710578918 -0.098516546189785 -0.27898484468460083
-0.06373412162065506 -0.004551609978079796 0.09176953881978989
-0.10060252249240875 0.040930911898612976 0.024834807962179184
-0.09968651831150055 0.035893965512514114 -0.029110699892044067
0.06188729777932167 -0.09870006144046783 0.04836691915988922
-0.07946904003620148 0.11699847877025604 0.05075296014547348
-0.026931293308734894 0.06519193202257156 0.09503099322319031
-0.09567052125930786 -0.008237477391958237 0.042194515466690063
-0.11311852186918259 0.07835029810667038 0.0072935596108436584
-0.12123242020606995 0.09725023806095123 -0.047474876046180725
-0.0001336522400379181 -0.10237249732017517 0.014370845630764961
-0.042972713708877563 -0.02983994223177433 -0.0298379547894001
0.13331568241119385 -0.07123101502656937 -0.08031050860881805
0.10303615778684616 -0.08452688157558441 -0.0017741788178682327
-0.04504663497209549 -0.07973344624042511 0.0041718753054738045
-0.0486898310482502 -0.042577024549245834 0.1462613344192505
-0.04034026339650154 -0.03422888368368149 -0.17838428914546967
-0.11347505450248718 0.06497731059789658 -0.20424248278141022
-0.00474134087562561 -0.05630388855934143 0.012523921206593513
0.00893637165427208 -0.11023827642202377 -0.21599966287612915
0.09469851851463318 -0.06901975721120834 -0.11156105995178223
0.11909938603639603 -0.09212513267993927 -0.15418386459350586
-0.0021693839225918055 -0.09706214815378189 0.07630438357591629
-0.07546067237854004 0.15761426091194153 0.20691177248954773
0.08833099901676178 -0.10066864639520645 -0.15499860048294067
0.04343864321708679 -0.07813871651887894 -0.007225746288895607
0.06664855033159256 -0.08546595275402069 0.04507071524858475
0.18084648251533508 0.13152794539928436 -0.4856274127960205
0.10744121670722961 -0.08449181914329529 -0.05258052796125412
0.055858951061964035 -0.10937222838401794 0.002341190353035927
-0.08480919152498245 -0.0753660649061203 -0.03765679895877838
-0.026848899200558662 -0.0818953812122345 0.14157943427562714
0.13010185956954956 -0.06891316920518875 0.2516993582248688
-0.013681470416486263 0.0870409682393074 0.10057409107685089
-0.0027022436261177063 -0.07355257123708725 -0.10561509430408478
-0.08480139076709747 0.04299679026007652 0.010791919194161892
-0.11138331145048141 0.0007344372570514679 -0.07882995903491974
0.09758614748716354 -0.08509394526481628 0.051934994757175446
0.08692901581525803 -0.06155344843864441 -0.018751805648207664
-0.08604057878255844 -0.06772386282682419 0.12581749260425568
-0.04038826748728752 -0.06016555428504944 0.06665554642677307
-0.049396514892578125 -0.02869686856865883 -0.013894181698560715
0.09575425088405609 -0.058352645486593246 0.24649286270141602
-0.09943011403083801 -0.06620584428310394 0.11364397406578064
-0.05736883729696274 0.05851763114333153 -0.04479636251926422
-0.00929105281829834 -0.12416578084230423 -0.29380229115486145
-0.06518611311912537 -0.011765651404857635 -0.21661870181560516
0.01742032915353775 -0.07429316639900208 0.0009655002504587173
-0.09339378029108047 -0.06340693682432175 0.07273933291435242
-0.029546258971095085 0.06344597041606903 0.006748585030436516
-0.0741221234202385 0.02753722108900547 0.02740827575325966
-0.08069656789302826 0.1231037899851799 -0.05315164849162102
-0.07250049710273743 -0.06328003853559494 -0.07481164485216141
-0.08541237562894821 0.1591094434261322 0.11339887976646423
-0.0347055085003376 -0.05952361598610878 -0.170673206448555
0.052637532353401184 -0.07114525884389877 0.027930790558457375
-0.06883843243122101 -0.07681924104690552 -0.008908594027161598
-0.06168636679649353 0.15356162190437317 0.3102784752845764
-0.10026680678129196 0.037842221558094025 0.08432932198047638
-0.08238494396209717 0.05805131793022156 -0.04136022925376892
-0.08648481965065002 0.03134007751941681 -0.13560804724693298
-0.12294559925794601 0.08078539371490479 0.4396733343601227
-0.09253473579883575 0.060442861169576645 0.18425199389457703
-0.09121565520763397 0.03835761174559593 -0.051694948226213455
-0.09023655205965042 0.08769281208515167 0.031063096597790718
-0.04496235400438309 -0.07560981810092926 0.05215277150273323
0.20539924502372742 -0.06737983971834183 -0.2468213140964508
-0.05683460086584091 -0.10036729276180267 -0.0510442778468132
0.11728294938802719 -0.06507663428783417 0.3965308368206024
-0.10875819623470306 0.09813505411148071 0.07231826335191727
-0.08417955785989761 0.13554659485816956 -0.0151083804666996
-0.09088143706321716 -0.05732445418834686 -0.0289442278444767
-0.06623654067516327 0.06664270162582397 0.07373254746198654
-0.05123898759484291 -0.08942361176013947 0.01890072599053383
-0.08395496010780334 -0.0763043463230133 0.016543345525860786
-0.003799951635301113 -0.07870718836784363 0.0389750599861145
0.11662368476390839 -0.06166557967662811 0.011620881967246532
-0.04378918558359146 -0.0519808754324913 -0.0383799783885479
-0.08205146342515945 0.025327734649181366 0.1101914718747139
0.06271062791347504 -0.10244151949882507 0.03530144318938255
-0.00027984194457530975 -0.10982348024845123 -0.152479350566864
0.05975428223609924 -0.08837030082941055 -0.016608484089374542
-0.08516687154769897 -0.01573479361832142 -0.05038430541753769
0.04068358987569809 -0.06707826256752014 0.17189273238182068
0.20118370652198792 0.028939345851540565 0.35370752215385437
-0.002773457206785679 -0.1382286250591278 -0.22825434803962708
0.020841380581259727 -0.08792786300182343 0.1915322244167328
-0.08225187659263611 0.0360858216881752 0.05149984359741211
-0.09075213968753815 0.10255732387304306 0.024106567725539207
-0.12847968935966492 0.08954688906669617 -0.08395367115736008
0.026988856494426727 -0.05814281851053238 0.0015971176326274872
-0.07811687141656876 -0.07623955607414246 -0.016023147851228714
-0.08220236003398895 -0.018788889050483704 -0.020558902993798256
-0.0704014003276825 0.03754371777176857 0.008432716131210327
-0.11454690992832184 0.09277363866567612 -0.08057914674282074
-0.030644550919532776 -0.08173730224370956 0.0922679528594017
0.05680759996175766 -0.1137060597538948 -0.04912920668721199
0.09264370799064636 -0.08845548331737518 -0.36655721068382263
-0.09467582404613495 -0.07095837593078613 -0.021993352100253105
0.09722161293029785 -0.047648604959249496 -0.150074303150177
0.002386864274740219 -0.04476567357778549 -0.0008514600340276957
-0.13413353264331818 0.08826068043708801 0.015395944938063622
-0.04508165270090103 -0.061231255531311035 0.08126858621835709
0.31386318802833557 0.030972501263022423 -0.10706397145986557
-0.06600768119096756 0.10963135957717896 0.14286768436431885
-0.08283571898937225 -0.07779724895954132 0.13475017249584198
-0.07176937162876129 0.009423520416021347 -0.09995023906230927
0.03505893051624298 0.042678020894527435 0.49672025442123413
-0.11696721613407135 0.04069146141409874 -0.020035209134221077
0.06515359878540039 -0.052411165088415146 0.008045640774071217
0.032250575721263885 -0.09617242217063904 0.31917786598205566
-0.03932378068566322 -0.04725582152605057 -0.4103386402130127
-0.01092597097158432 -0.06722802668809891 0.09084522724151611
0.04633217304944992 -0.07225941121578217 -0.20193229615688324
-0.019832374528050423 -0.10924714803695679 0.029004644602537155
-0.07661471515893936 0.09222282469272614 -0.026796195656061172
0.07055860757827759 -0.08252500742673874 0.05297621339559555
-0.10915859043598175 0.05875153839588165 0.020710589364171028
0.09620365500450134 -0.05067999288439751 -0.011547697708010674
-0.06080825999379158 0.11918150633573532 0.18006746470928192
-0.007209141738712788 -0.07556581497192383 -0.06870205700397491
-0.06099765747785568 0.06304947286844254 -0.046753838658332825
-0.02242172136902809 -0.12802696228027344 -0.030269891023635864
0.11709225922822952 -0.0715191513299942 -0.013001903891563416
-0.10801007598638535 0.07989107072353363 -0.017341261729598045
-0.07137936353683472 0.08684589713811874 -0.08239065110683441
0.05198037624359131 -0.11840172111988068 -0.06463845074176788
-0.07878397405147552 0.10982436686754227 0.2439998984336853
-0.08075752854347229 -0.07909052819013596 -0.04228442162275314
-0.014619629830121994 -0.08004970103502274 0.004915096331387758
0.023852430284023285 -0.07958896458148956 0.010695161297917366
0.26976239681243896 -0.06901072710752487 0.21764270961284637
-0.08848614245653152 -0.06538642942905426 0.07889518141746521
-0.04938347637653351 0.09897293150424957 0.01780446618795395
0.08391796052455902 -0.0642109364271164 0.07656001299619675
0.11307264864444733 -0.06927068531513214 -0.03771413862705231
0.009301111102104187 -0.08182673901319504 0.10171990096569061
0.14819632470607758 -0.03580375388264656 -0.038274817168712616
0.012035243213176727 -0.14563864469528198 0.10310289263725281
-0.08036626130342484 -0.061817485839128494 -0.018832772970199585
-0.09353789687156677 0.04826776310801506 0.2022297978401184
0.058938488364219666 -0.09937369078397751 0.25891172885894775
0.11349103599786758 -0.08397774398326874 -0.03246831148862839
0.02642543613910675 0.3766983151435852 0.3389040529727936
-0.025330504402518272 0.07537540048360825 0.09833315759897232
0.09366832673549652 -0.10193727910518646 -0.11342291533946991
0.09396609663963318 -0.0956781655550003 0.20047521591186523
-0.04814722761511803 -0.014860287308692932 0.06874256581068039
-0.08246142417192459 0.005581235513091087 0.06339496374130249
-0.05231000855565071 0.035344019532203674 0.061154551804065704
0.09763796627521515 -0.06380008161067963 0.09867526590824127
-0.09379766881465912 -0.0055690668523311615 -0.058476101607084274
-0.05743471160531044 0.14819496870040894 0.037883274257183075
-0.04750293493270874 0.017082855105400085 -0.23896650969982147
0.06759906560182571 -0.07082702964544296 -0.01408345066010952
0.03632332757115364 -0.10579535365104675 0.04593225196003914
-0.001595469657331705 -0.06612295657396317 -0.03942304104566574
-0.08299488574266434 0.09343457221984863 0.019323628395795822
-0.10350137203931808 0.08305449038743973 0.10906501859426498
-0.09548652917146683 0.05396680533885956 0.25682246685028076
0.07141968607902527 -0.03564112260937691 -0.030018970370292664
-0.08694290369749069 0.137559711933136 -0.017698563635349274
-0.0006061755120754242 -0.09098871052265167 0.047437913715839386
-0.10209343582391739 0.01473931409418583 -0.052068889141082764
-0.08266081660985947 -0.08542416989803314 -0.025090519338846207
0.0371166355907917 -0.11482974141836166 0.05642128735780716
-0.09312252700328827 -0.013273732736706734 0.12403889000415802
0.03793279081583023 -0.08701970428228378 0.21381598711013794
-0.09482821077108383 -0.09141822904348373 -0.08765393495559692
-0.0628352239727974 0.07707593590021133 0.010315262712538242
-0.08461658656597137 0.11498188972473145 0.08503483235836029
-0.1053970456123352 0.07011061906814575 0.05664684250950813
-0.012483367696404457 -0.0007429569959640503 -0.2544764280319214
-0.020680982619524002 0.13225552439689636 -0.024571750313043594
-0.10815027356147766 0.037401892244815826 0.0605173334479332
-0.008046893402934074 -0.07249495387077332 -0.04370610788464546
-0.040310293436050415 0.14083099365234375 0.0332564078271389
-0.02586563304066658 -0.07378484308719635 -0.0021615438163280487
-0.061050597578287125 -0.045393206179142 -0.05262668430805206
-0.004475028719753027 -0.0944606140255928 -0.010434525087475777
-0.0786401703953743 0.050633661448955536 -0.003939012996852398
0.19254961609840393 -0.0724182277917862 0.033319052308797836
0.032824836671352386 -0.0837940126657486 -0.002880331128835678
-0.08495374768972397 -0.07397737354040146 -0.1227966845035553
-0.040244750678539276 -0.07060560584068298 0.12583917379379272
-0.03378652408719063 -0.0653475895524025 -0.06894301623106003
0.01799807697534561 -0.12187217175960541 -0.017228586599230766
-0.09651707857847214 0.004805060103535652 0.0071093132719397545
0.12023042887449265 -0.06233721226453781 -0.2972056269645691
0.03340901434421539 -0.07932267338037491 0.047960784286260605
-0.017643863335251808 -0.07843468338251114 0.026199012994766235
-0.0748441219329834 -0.01744837313890457 0.12094734609127045
-0.08639781922101974 0.07586655020713806 0.27099332213401794
0.047214314341545105 -0.04085477814078331 -0.027522467076778412
-0.09625169634819031 -0.026113271713256836 0.2682845890522003
-0.04725630208849907 0.1332010179758072 0.055627331137657166
0.05276535823941231 -0.08946585655212402 -0.1297416388988495
0.06647816300392151 -0.04690111055970192 -0.013357572257518768
0.042280927300453186 -0.07672704756259918 0.015391139313578606
0.007981347851455212 -0.08207372575998306 0.029835114255547523
-0.07449690997600555 0.0761178508400917 0.18691277503967285
-0.08828122913837433 0.021980419754981995 -0.03534127399325371
-0.06586658954620361 0.04333672299981117 -0.13229571282863617
-0.012508436106145382 -0.09840141236782074 0.0657852441072464
0.05933096632361412 -0.09056853502988815 -0.0418538972735405
0.12990029156208038 -0.07614052295684814 0.0419948510825634
-0.0600104033946991 -0.008514836430549622 -0.29305052757263184
-0.07851138710975647 -0.06598377972841263 -0.045619379729032516
-0.04268714785575867 -0.07013273239135742 0.11099199205636978
-0.03626895695924759 -0.05812487006187439 0.08711028099060059
-0.10384494811296463 0.07172014564275742 0.18192768096923828
-0.0936114639043808 0.10926159471273422 -0.10455156862735748
-0.10604508221149445 -0.0005031045293435454 0.11594496667385101
-0.013941997662186623 -0.11620111763477325 0.18374395370483398
-0.12115347385406494 0.040715232491493225 0.08337443321943283
-0.08793311566114426 -0.040282852947711945 0.049760252237319946
0.025786586105823517 -0.10634613037109375 0.005788369104266167
0.08154268562793732 -0.07070957869291306 0.022981490939855576
0.10375452786684036 -0.06034042686223984 -0.2053721845149994
-0.03597989305853844 -0.04717148840427399 -0.09734132885932922
-0.015301845967769623 -0.049960944801568985 -0.022336889058351517
-0.07978536188602448 0.011531377211213112 -0.06571047753095627
0.11006751656532288 -0.08719698339700699 0.12777996063232422
0.01361793652176857 -0.04285309463739395 0.1934916377067566
0.07024773955345154 -0.0587015263736248 -0.04814261570572853
-0.11337009072303772 0.17506960034370422 -0.1490498036146164
-0.05360660329461098 -0.09747210144996643 0.09040723741054535
0.1955336183309555 -0.06706152856349945 0.00969851016998291
-0.014140987768769264 -0.09012678265571594 -0.13785982131958008
-0.13951639831066132 0.08847151696681976 0.03189112991094589
-0.11388523876667023 0.006385024171322584 -0.09508651494979858
-0.09172210842370987 0.11442214250564575 -0.005244630388915539
-0.004802284296602011 -0.11775252223014832 -0.08264069259166718
0.01920020952820778 -0.07937707006931305 0.23179307579994202
-0.029305506497621536 0.054168689996004105 0.17355094850063324
-0.09936951100826263 0.027223661541938782 0.08369451761245728
-0.06445971131324768 -0.03578667342662811 -0.006145787891000509
0.0037475358694791794 -0.09067963808774948 0.048936743289232254
0.09138887375593185 -0.012975970283150673 -0.3741419315338135
-0.01386471651494503 -0.07838520407676697 0.01059669815003872
-0.05905173718929291 0.10489708185195923 -0.31395161151885986
-0.07777629792690277 0.021610094234347343 0.004577735438942909
0.04362232983112335 -0.09640949219465256 -0.027290400117635727
-0.068045474588871 0.003063456155359745 -0.013641257770359516
-0.0121343694627285 -0.08511865139007568 -0.12743298709392548
-0.12431519478559494 0.03783930093050003 0.05421758443117142
-0.08430352807044983 0.08690402656793594 -0.014142771251499653
-0.07247967272996902 0.021469108760356903 0.0786905288696289
-0.11070749908685684 0.15432822704315186 0.08606959134340286
0.059910327196121216 -0.08233964443206787 0.02029649168252945
-0.06900262832641602 0.1378968209028244 0.27149468660354614
-0.03453347086906433 -0.078458771109581 -0.024889662861824036
-0.05902962386608124 0.043755896389484406 -0.10477744042873383
0.05444137006998062 -0.06667181104421616 0.0377751961350441
-0.11930738389492035 -0.008455122821033001 0.07975365221500397
0.11891186982393265 -0.06884515285491943 -0.001331833191215992
-0.0939205214381218 -0.07425013929605484 -0.014201663434505463
-0.10207325965166092 0.037556685507297516 0.026102596893906593
-0.12382491677999496 0.0590251088142395 0.07926209270954132
0.09767784923315048 -0.07657366245985031 -0.06940595805644989
-0.0802605152130127 0.026395652443170547 -0.02371053770184517
-0.08535968512296677 0.06486563384532928 0.026946447789669037
-0.04868331179022789 0.03350798785686493 -0.06332919001579285
-0.1091887503862381 -0.06450671702623367 -0.3202093243598938
-0.10840899497270584 -0.03966797515749931 0.26470741629600525
0.10092102736234665 -0.02666848711669445 -0.06838567554950714
-0.055350411683321 0.0750398188829422 -0.18158984184265137
0.03011147677898407 -0.08478833734989166 -0.03393641859292984
-0.0651165246963501 -0.09939518570899963 0.3278287351131439
0.021199872717261314 -0.0941309779882431 0.13309825956821442
-0.07943890988826752 0.08326435834169388 -0.00844615139067173
-0.04725340008735657 0.0630960464477539 -0.05650053173303604
0.02435961365699768 -0.08330365270376205 0.029921311885118484
-0.011348209343850613 -0.0753726065158844 -0.036633316427469254
-0.06435105204582214 -0.0710829496383667 0.13111604750156403
-0.1026180312037468 0.15883192420005798 0.3839699625968933
-0.11132355034351349 -0.023470761254429817 0.32531362771987915
0.03902491554617882 -0.053113602101802826 -0.09490946680307388
0.014477245509624481 -0.11330830305814743 -0.07296457886695862
-0.07510046660900116 0.020048057660460472 0.02160096913576126
-0.06275546550750732 -0.06131334602832794 -0.23269635438919067
0.1285168081521988 -0.05421574041247368 0.018205251544713974
-0.023327894508838654 -0.10928798466920853 0.2588806748390198
0.0469730868935585 -0.126180499792099 0.054480500519275665
0.1183326244354248 -0.0022345799952745438 0.28645312786102295
0.011126639321446419 -0.08884231746196747 0.024586310610175133
0.0220054741948843 -0.10974106192588806 -0.037697017192840576
-0.09158127009868622 0.027449574321508408 0.019641689956188202
0.05807333439588547 -0.10726991295814514 0.07757891714572906
-0.06624215841293335 -0.07988209277391434 -0.021960917860269547
-0.08489099889993668 0.014466799795627594 0.24247625470161438
-0.07166991382837296 0.13354229927062988 0.03953172639012337
-0.04844316840171814 0.07057991623878479 0.07301021367311478
-0.01682892255485058 -0.08883693069219589 -0.11445033550262451
-0.09211857616901398 -0.06425858289003372 0.03639350086450577
-0.0896730050444603 0.06769339740276337 0.018396124243736267
-0.11310230195522308 -0.012988947331905365 0.0541401207447052
0.07669994980096817 -0.10798148810863495 0.09476908296346664
0.09157807379961014 -0.04089057445526123 -0.009932756423950195
-0.0065184086561203 -0.06599847972393036 0.03081871010363102
-0.04727684706449509 -0.04994291812181473 0.05434764176607132
0.022890564054250717 -0.0629192665219307 0.0040448750369250774
-0.07647766917943954 0.06617289036512375 0.05651810020208359
0.11163056641817093 -0.06795436143875122 -0.013276408426463604
0.12078005820512772 -0.039683494716882706 -0.017899351194500923
-0.11083773523569107 0.011155541986227036 0.004707571119070053
-0.07757563889026642 0.21871669590473175 0.07563148438930511
-0.09088805317878723 0.1135338842868805 0.01141258142888546
0.013693046756088734 -0.07462973147630692 0.12868069112300873
0.14676345884799957 -0.08734549582004547 0.10677557438611984
-0.03886202722787857 -0.07157452404499054 -0.2740377187728882
-0.06166987866163254 -0.07740622758865356 -0.0015557203441858292
-0.06889433413743973 0.02105635032057762 0.0105834249407053
0.07867734879255295 -0.07688869535923004 0.15726670622825623
-0.07085572183132172 -0.01516641490161419 -0.03740806505084038
-0.12388208508491516 0.009324396029114723 -0.02253495156764984
-0.026850741356611252 -0.06862299889326096 -0.03873587027192116
-0.04878611117601395 -0.11272191256284714 -0.1134817898273468
0.055005669593811035 -0.09328361600637436 0.033683255314826965
0.11474498361349106 -0.06735377758741379 0.09990549087524414
0.08515309542417526 -0.1051812469959259 0.37559932470321655
0.09993971884250641 -0.06716751307249069 -0.050448331981897354
-0.05237392336130142 -0.013426393270492554 0.012278765439987183
-0.11045513302087784 0.06656122207641602 0.09651411324739456
0.023304376751184464 -0.03967652469873428 -0.011474783532321453
0.13187219202518463 -0.0405086874961853 -0.0962817594408989
-0.06096939370036125 -0.02594517543911934 -0.01107766106724739
0.08761604130268097 -0.08633287996053696 0.06487926095724106
-0.05835436284542084 -0.0850626528263092 0.04405275359749794
-0.09889963269233704 -0.030477339401841164 -0.08162090927362442
0.14051370322704315 -0.07026804983615875 -0.049476828426122665
0.12602432072162628 -0.05333273857831955 0.01835661754012108
0.09352780878543854 -0.07402701675891876 0.029056154191493988
0.10499180108308792 -0.07109828293323517 0.010568351484835148
0.09904548525810242 -0.06261269748210907 0.13547725975513458
0.040658943355083466 -0.07865595817565918 0.05969614535570145
-0.11371327191591263 0.10516517609357834 0.4145391881465912
-0.08468520641326904 0.023326264694333076 0.1767132580280304
0.025332234799861908 -0.07637368887662888 -0.09606359153985977
-0.06567715108394623 -0.05076165869832039 0.22879251837730408
0.0245700404047966 -0.10682360827922821 -0.05437882989645004
-0.08946293592453003 -0.04502798989415169 -0.11319669336080551
-0.059551965445280075 -0.08370096981525421 -0.18268465995788574
-0.12192436307668686 0.07055014371871948 0.019071824848651886
-0.10177719593048096 0.17147105932235718 0.10285130143165588
-0.03780583664774895 -0.07551949471235275 0.043092913925647736
0.021351385861635208 -0.08509103953838348 0.20198357105255127
-0.10136575251817703 0.03110422007739544 -0.01997148059308529
-0.06590630859136581 0.03834160417318344 -0.05619252473115921
0.07620955258607864 -0.07969265431165695 -0.017598101869225502
-0.06930703669786453 -0.09551997482776642 -0.006210572551935911
-0.009594213217496872 0.01783241517841816 -0.07675495743751526
0.0959654152393341 -0.08293652534484863 -0.013005949556827545
0.11832831799983978 -0.06847672164440155 0.08004160225391388
0.08080685883760452 -0.09306060522794724 -0.115357905626297
-0.0839998796582222 -0.09991033375263214 -0.09721015393733978
-0.13870665431022644 -0.036415815353393555 -0.0398285910487175
0.30718812346458435 0.03946149721741676 0.05862867087125778
0.10372038930654526 -0.08251374959945679 0.023891037330031395
-0.054563891142606735 0.14750833809375763 0.0007394049316644669
-0.0027250703424215317 -0.10986997932195663 0.009071670472621918
-0.003465212881565094 -0.07585855573415756 -0.011814231052994728
-0.06586882472038269 -0.06733378022909164 -0.09053406119346619
-0.07210040092468262 -0.045331474393606186 -0.037940576672554016
-0.06508664786815643 -0.006687212735414505 0.09693579375743866
