0.05201743543148041 -0.10474763065576553 0.2641182839870453
-0.01634291559457779 -0.05917190760374069 0.15471306443214417
-0.08722096681594849 0.005965834483504295 -0.0879792720079422
-0.07653262466192245 0.002807674929499626 0.078911691904068
-0.012642301619052887 -0.07404700666666031 0.04348897188901901
-0.0431094653904438 -0.046803321689367294 0.11428308486938477
-0.06969122588634491 -0.06619957834482193 -0.00023110397160053253
0.09724514931440353 -0.07808566093444824 0.04152229055762291
-0.08254708349704742 -0.05549120903015137 -0.006231208797544241
-0.1030457392334938 0.02486339956521988 0.08805295079946518
-0.07407219707965851 -0.014251451008021832 0.03885467350482941
-0.11723112314939499 0.012885029427707195 -0.08773860335350037
-0.08553250133991241 0.07822294533252716 -0.18238426744937897
-0.09121552109718323 0.15281851589679718 -0.06895674020051956
0.09895085543394089 -0.05974855273962021 0.006688813678920269
-0.1395435482263565 0.1006467416882515 0.35461145639419556
0.027838993817567825 -0.034687016159296036 -0.46319451928138733
0.08496038615703583 -0.06747448444366455 -0.006990060210227966
-0.09499771893024445 0.0614854097366333 0.0973895937204361
-0.011290867812931538 -0.04787272959947586 0.22442372143268585
0.09889286756515503 -0.06394033879041672 -0.17742934823036194
0.023260334506630898 -0.06727452576160431 -0.017481666058301926
-0.08839240670204163 0.060169268399477005 0.21517838537693024
0.1250077188014984 -0.07085072249174118 0.13081678748130798
0.10096481442451477 -0.07520376890897751 -0.12959831953048706
-0.027547381818294525 -0.06912638247013092 -0.01964513771235943
-0.08310507982969284 0.015703100711107254 0.21470825374126434
0.08393380045890808 -0.06411053240299225 -0.01558514405041933
0.004841187968850136 -0.09588739275932312 -0.006048388779163361
-0.09892047941684723 0.051038481295108795 0.13140878081321716
0.095538429915905 -0.08811727911233902 0.10259519517421722
0.045333266258239746 0.3899303078651428 0.1082899272441864
0.05018754303455353 -0.09026797115802765 -0.13154546916484833
-0.03375464677810669 -0.08280575275421143 0.12237192690372467
0.0048507037572562695 -0.10039249062538147 -0.16040872037410736
-0.06927788257598877 -0.016285818070173264 -0.015459705144166946
-0.08999387919902802 -0.05818423256278038 -0.26836925745010376
0.12253035604953766 -0.06491072475910187 -0.049752697348594666
0.012161425314843655 -0.10229551792144775 0.3610275685787201
0.15628020465373993 -0.024242576211690903 0.21791471540927887
-0.054869309067726135 0.12129317224025726 -0.0859047919511795
-0.09561043977737427 -0.042744267731904984 -0.00796494260430336
-0.06329826265573502 -0.07704851031303406 0.1573237031698227
-0.06793858855962753 0.06228458508849144 0.006082599051296711
-0.02801644057035446 -0.09304606914520264 0.1106347143650055
-0.08272771537303925 0.03538857400417328 -0.048926226794719696
-0.1041780561208725 -0.043722495436668396 0.15018931031227112
-0.08304207772016525 0.05290362983942032 0.17921866476535797
-0.0885976031422615 0.01910099759697914 0.016046704724431038
0.05349460244178772 -0.0731208473443985 -0.026272065937519073
-0.06664946675300598 -0.0646546259522438 -0.036833710968494415
-0.1021571233868599 0.06309886276721954 0.03722132369875908
0.09439843893051147 -0.06471487879753113 -0.05319805443286896
0.028916191309690475 -0.08763841539621353 0.09284576028585434
0.17154361307621002 -0.062441714107990265 0.13813915848731995
0.06638661026954651 -0.08179455995559692 0.1767585724592209
-0.06735125184059143 -0.01630544848740101 0.037296220660209656
0.024796947836875916 -0.0784178376197815 0.06172686815261841
0.04444658383727074 -0.08774817734956741 0.007037314586341381
-0.08028653264045715 0.019714176654815674 0.04020663723349571
-0.053665075451135635 -0.02839489094913006 0.021067067980766296
-0.0896805077791214 0.03495054692029953 0.07674279063940048
-0.08893688023090363 0.15025128424167633 -0.01102038286626339
0.06974077969789505 -0.11054718494415283 -0.11981673538684845
-0.08639787882566452 0.11441729962825775 0.04357998073101044
-0.1049860268831253 0.09585671871900558 0.33429160714149475
-0.05369792506098747 0.12480156868696213 -0.1046222448348999
-0.07467257231473923 0.03502736613154411 -0.15296465158462524
-0.08979000151157379 0.002240687608718872 0.020937282592058182
-0.10322017967700958 0.08588901162147522 0.19769376516342163
0.10365191102027893 -0.06649371981620789 0.008805206045508385
-0.09215451031923294 0.12308739125728607 -0.0647810846567154
-0.10614126920700073 0.1398652344942093 -0.08852425217628479
0.09642579406499863 -0.048869069665670395 -0.2831568419933319
0.1314251720905304 -0.06724216789007187 -0.191166952252388
0.10980641841888428 -0.07865214347839355 -0.010169281624257565
0.08411610126495361 -0.08471421897411346 0.12155964970588684
-0.09850923717021942 -0.05872518569231033 0.35218316316604614
0.025557640939950943 -0.10093696415424347 -0.2650375962257385
-0.06625726819038391 0.13476049900054932 0.18615944683551788
-0.029284954071044922 -0.0688980221748352 0.039148226380348206
-0.07757338136434555 -0.005453703925013542 0.06079075112938881
0.09026220440864563 -0.0825241282582283 -0.22311893105506897
0.04993213713169098 -0.08232612907886505 0.09723858535289764
-0.043742790818214417 -0.08004134893417358 0.08388037979602814
-0.10125969350337982 0.08543606847524643 -0.2677411437034607
-0.0486065074801445 -0.06793022900819778 0.12028786540031433
-0.012056687846779823 -0.07591037452220917 -0.006407955661416054
0.02269180491566658 0.0450170561671257 0.21564555168151855
-0.06323131918907166 -0.019213857129216194 0.1872374266386032
0.07042638212442398 -0.08177350461483002 0.009571858681738377
0.08869440853595734 -0.09909326583147049 -0.04419739544391632
0.012325819581747055 -0.07135539501905441 -0.02376670017838478
0.09266836941242218 -0.0880790650844574 -0.06420624256134033
-0.11254245787858963 0.08618734776973724 -0.18980102241039276
0.04564329981803894 -0.06715143471956253 0.005394952371716499
0.10981226712465286 -0.07009834051132202 -0.01329638808965683
0.032577939331531525 -0.07617244869470596 0.12165005505084991
-0.06379237771034241 -0.013418165035545826 0.0007958505302667618
-0.05553688481450081 0.020304584875702858 -0.07668398320674896
0.09100651741027832 -0.07836228609085083 0.049572985619306564
-0.043429166078567505 -0.058393534272909164 0.40018606185913086
-0.029246855527162552 -0.05162636190652847 0.10321613401174545
-0.07983896136283875 -0.011505146510899067 -0.12844857573509216
-0.11535920947790146 0.1334853172302246 0.13211971521377563
0.0678250715136528 -0.08013951778411865 -0.023046430200338364
0.10259996354579926 -0.05905141681432724 -0.03428330272436142
0.13254445791244507 -0.08514457941055298 -0.1118004322052002
-0.05056237056851387 -0.021588630974292755 0.0953098013997078
-0.10373657941818237 0.084711454808712 -0.1439039707183838
-0.07748161256313324 -0.05098273605108261 0.09076451510190964
0.07841680198907852 -0.08968305587768555 0.07315342128276825
-0.10660338401794434 0.06124113127589226 0.1557760387659073
0.011909214779734612 -0.050449639558792114 -0.3591933846473694
-0.07670604437589645 -0.07840808480978012 0.07174994051456451
0.12775090336799622 -0.0836683139204979 0.4247981905937195
0.11506322771310806 -0.07207344472408295 -0.0052901869639754295
0.046614110469818115 -0.08645313233137131 -0.014158196747303009
-0.08046619594097137 0.02568996325135231 0.04771052300930023
0.12335678189992905 -0.023034855723381042 0.014423152431845665
0.1116652712225914 -0.08691287785768509 0.06798304617404938
0.0632820874452591 -0.08296634256839752 0.012257467955350876
-0.06679622828960419 -0.09476403892040253 0.2688726484775543
-0.10133223235607147 -0.019802076742053032 -0.023851163685321808
-0.09725046157836914 0.042329274117946625 0.17628760635852814
0.1055537611246109 -0.08023194223642349 0.15970416367053986
0.1004956066608429 -0.024254638701677322 0.09355290234088898
0.09960316866636276 -0.06440232694149017 0.17673785984516144
0.0007746759802103043 -0.07479717582464218 -0.017957672476768494
0.09466683119535446 -0.10608983784914017 0.18762201070785522
0.020611075684428215 -0.10698164999485016 0.1828986257314682
-0.012033414095640182 -0.09590373933315277 0.042051419615745544
-0.004132947884500027 -0.05933920294046402 0.2153792828321457
-0.10899841040372849 -0.008586276322603226 -0.044223085045814514
-0.08996178209781647 -0.05224940925836563 0.28772875666618347
-0.07266552746295929 -0.00960671715438366 -0.00807422399520874
-0.08116406202316284 0.01998686045408249 -0.18259498476982117
-0.06255154311656952 -0.0704740509390831 0.27002331614494324
-0.06949301064014435 -0.02287871763110161 -0.09052446484565735
-0.08618754148483276 0.06051282212138176 -0.019292529672384262
-0.0733996033668518 0.05861683189868927 -0.056074488908052444
-0.06961457431316376 0.0031256787478923798 0.06146117299795151
-0.03224698454141617 -0.07853832840919495 -0.1266210675239563
0.06644460558891296 -0.07982383668422699 -0.03519650548696518
-0.10366950184106827 -0.010644251480698586 -0.04184805601835251
0.04803326725959778 -0.0880548506975174 -0.0882306843996048
0.24420349299907684 -0.08074255287647247 0.1397237330675125
-0.07275846600532532 0.0008500255644321442 -0.04941469430923462
-0.10172699391841888 0.04363211616873741 -0.15297181904315948
-0.0636138990521431 -0.10897345840930939 -0.09787756204605103
-0.05927910655736923 -0.019657675176858902 -0.15886926651000977
0.10362926870584488 -0.055853016674518585 0.0001542847603559494
-0.07032991945743561 -0.07675118744373322 -0.02120039612054825
0.010051633231341839 -0.1223003938794136 -0.12520717084407806
-0.07852128148078918 0.0024095680564641953 0.07072530686855316
0.07141400873661041 -0.09344151616096497 0.03765294700860977
-0.018634792417287827 -0.09929975867271423 0.30607542395591736
0.08688213676214218 -0.07936587929725647 -0.1444605141878128
-0.06818608939647675 0.04348541796207428 -0.3312448263168335
-0.01807139441370964 -0.09375472366809845 0.013526197522878647
0.051662616431713104 -0.06286773085594177 0.03949093818664551
-0.051919665187597275 -0.06295284628868103 0.12669536471366882
-0.025511547923088074 -0.07654908299446106 -0.00575532391667366
0.008631402626633644 -0.11650658398866653 0.43278127908706665
-0.07929311692714691 -0.03610391169786453 0.026485003530979156
0.025599367916584015 -0.09779711812734604 0.33324965834617615
-0.11551134288311005 0.033286940306425095 0.024632517248392105
-0.07034461200237274 -0.006082691717892885 0.05595783516764641
0.0500476136803627 -0.0927802175283432 -0.16377493739128113
-0.07889001816511154 0.17461955547332764 -0.24839936196804047
-0.08829688280820847 0.033653125166893005 0.033860236406326294
-0.05650413781404495 0.14054253697395325 -0.30146324634552
0.07486525177955627 -0.08061878383159637 -0.09864349663257599
0.07848021388053894 -0.05915891379117966 -0.027231473475694656
-0.022369639948010445 -0.08442475646734238 0.01209670677781105
-0.11892227828502655 -0.00020781252533197403 -0.16535837948322296
0.003922425210475922 -0.10781294107437134 -0.054325804114341736
0.06811801344156265 -0.06814292818307877 -0.017913926392793655
0.11834654957056046 -0.0739784687757492 0.10260489583015442
-0.09212939441204071 -0.02116221934556961 0.04389733448624611
-0.007545306347310543 -0.10184061527252197 0.034470733255147934
0.044205136597156525 -0.08659990131855011 -0.03031786158680916
0.05276992917060852 -0.06056521087884903 -0.009056642651557922
-0.0922168418765068 0.03255017474293709 -0.012258781120181084
0.0332053005695343 -0.09923235327005386 0.06282032281160355
-0.08775255084037781 0.21374212205410004 0.1567666083574295
-0.09888990223407745 0.03639470040798187 0.02984648197889328
0.14350400865077972 -0.012139827944338322 -0.006773965433239937
0.26039910316467285 -0.07749701291322708 0.3838706314563751
-0.08833713084459305 0.020206449553370476 0.04892736300826073
-0.05845802277326584 -0.03160393610596657 -0.015350311994552612
0.004205642733722925 -0.055338405072689056 0.12305247038602829
-0.0828801691532135 0.026446694508194923 0.05827537924051285
-0.10728517174720764 0.05635682865977287 -0.05539258196949959
0.01162010058760643 -0.08063152432441711 -0.051456600427627563
0.19390743970870972 -0.004001137800514698 0.3893207013607025
-0.07822751253843307 0.03593693673610687 0.015094958245754242
-0.07427025586366653 0.24439018964767456 0.27416306734085083
-0.08698581159114838 0.013837050646543503 -0.03640849143266678
-0.00182382483035326 -0.07478660345077515 -0.19612537324428558
-0.0678030326962471 -0.07188063859939575 0.156541109085083
0.032990194857120514 -0.09114714711904526 0.11540757864713669
0.06289567798376083 -0.08864400535821915 -0.020523011684417725
-0.023772381246089935 -0.04747672379016876 -0.07857640087604523
0.009348038583993912 -0.07059452682733536 -0.24628904461860657
-0.07681762427091599 -0.0723990947008133 -0.13539521396160126
0.006508005782961845 -0.08136458694934845 -0.03921673074364662
-0.10918046534061432 0.15789547562599182 0.061119284480810165
-0.08842138946056366 0.03428884968161583 -0.040707774460315704
0.11133943498134613 -0.07028304785490036 -0.20748308300971985
0.06823340803384781 -0.08815253525972366 0.09955493360757828
-0.026299115270376205 -0.06183387339115143 -0.15625178813934326
0.015638578683137894 -0.09584902226924896 -0.03620196878910065
-0.01707908883690834 -0.09103348106145859 0.053214773535728455
0.00311223603785038 -0.07855373620986938 0.05683367699384689
0.10050692409276962 -0.07563900947570801 -0.01592681184411049
-0.10364282131195068 0.05699244141578674 0.060356199741363525
-0.007820213213562965 -0.07975830137729645 0.0346074253320694
0.01693667843937874 0.32166504859924316 -0.06477175652980804
-0.08868709951639175 0.055729784071445465 -0.05837076157331467
-0.014530939050018787 -0.07492400705814362 0.10984121263027191
0.0446905717253685 -0.09219200164079666 -0.010513992980122566
-0.07415302097797394 0.058639418333768845 0.04960383474826813
-0.07854105532169342 0.12421977519989014 -0.01092543639242649
0.06511551141738892 -0.0762588232755661 0.037714555859565735
-0.005971046164631844 -0.06858853250741959 0.0188598670065403
-0.07875392585992813 -0.057681966572999954 -0.005640234798192978
-0.12841469049453735 0.040296521037817 -0.03500181436538696
-0.0786048173904419 0.023802466690540314 0.05727213993668556
-0.0027993377298116684 -0.06674906611442566 0.03458250313997269
-0.08283627033233643 -0.047504398971796036 0.0855330377817154
-0.07837006449699402 -0.005650008097290993 -0.13737407326698303
-0.039886943995952606 0.11840520799160004 0.0777462050318718
-0.07822677493095398 -0.07127539813518524 0.047815144062042236
-0.08941791951656342 0.012884625233709812 -0.007561294361948967
-0.09964410960674286 0.030322061851620674 0.14772343635559082
-0.11813446879386902 0.05276170000433922 -0.02670753002166748
-0.0620713010430336 0.024005131796002388 0.06685474514961243
0.042771607637405396 -0.06909900903701782 -0.012010643258690834
-0.10095416009426117 -0.02849281206727028 0.18067218363285065
0.051710162311792374 -0.07886064052581787 0.002942027524113655
-0.07528531551361084 0.09853282570838928 -0.16946974396705627
-0.12073352932929993 -0.05293413624167442 -0.08783002197742462
0.046803705394268036 -0.0766269862651825 -0.02697652205824852
0.10209233313798904 -0.0818386971950531 -0.014868808910250664
-0.10360028594732285 -0.07371032983064651 -0.0895385667681694
-0.07436531037092209 -0.08360934257507324 -0.0894293263554573
-0.05696053057909012 0.10903070867061615 -0.3887614905834198
-0.09655691683292389 0.17276151478290558 0.02743428200483322
0.0038435296155512333 -0.1043962836265564 0.07135078310966492
-0.07007668912410736 -0.06311716139316559 -0.03773905336856842
0.08192108571529388 -0.08464710414409637 0.36291104555130005
-0.06740941852331161 0.13571472465991974 -0.2168501317501068
0.013760428875684738 -0.08218511939048767 -0.06813189387321472
-0.07363084703683853 -0.02468685619533062 -0.023122206330299377
-0.020577237010002136 -0.043430641293525696 0.29261454939842224
-0.08590283244848251 -0.06324518471956253 -0.05307384952902794
0.08029505610466003 -0.08418457955121994 -0.02943827211856842
0.019170718267560005 -0.11175509542226791 0.2232688069343567
0.139739528298378 -0.06547088921070099 0.20181357860565186
0.012624811381101608 -0.10174982249736786 0.06724224984645844
0.07134344428777695 -0.09469126164913177 -0.0026126066222786903
-0.07871251553297043 -0.057558149099349976 -0.04386831820011139
-0.07894985377788544 0.006200951524078846 0.10968807339668274
0.11409866064786911 -0.05908769741654396 0.07671290636062622
0.04757807031273842 -0.08086007088422775 0.004941781051456928
-0.08182686567306519 0.010078495368361473 0.1715543419122696
0.06013627350330353 -0.08771573007106781 -0.0332721583545208
0.004834361374378204 -0.07971042394638062 0.00325733982026577
-0.06905338168144226 0.0604579821228981 0.10936175286769867
0.020247530192136765 -0.08571757376194 -0.17609155178070068
0.004206202924251556 -0.07104309648275375 0.01881060004234314
-0.08026549220085144 -0.022894231602549553 -0.03164537996053696
-0.02657020278275013 -0.0661885067820549 0.03919999673962593
0.0669829249382019 -0.09314019232988358 -0.06124771013855934
0.06906502693891525 -0.0876448005437851 -0.09766219556331635
-0.03267928212881088 -0.05747581273317337 0.06002296134829521
-0.12527388334274292 0.048836395144462585 -0.11101342737674713
0.09533470124006271 -0.0645095556974411 -0.022429708391427994
0.0912666842341423 -0.052885085344314575 -0.013876363635063171
0.36833202838897705 0.06144924461841583 0.30869045853614807
-0.03513649106025696 -0.11374673992395401 0.10201171040534973
0.10101714730262756 -0.07321242988109589 -0.24080415070056915
0.2199510633945465 -0.060218844562768936 -0.11457956582307816
-0.09108248353004456 0.030818762257695198 0.13080571591854095
-0.03445553407073021 -0.07799200713634491 0.03067052736878395
-0.10881556570529938 -0.037511952221393585 -0.17687128484249115
-0.11165420711040497 -0.028462694957852364 -0.053250908851623535
0.0056683458387851715 -0.0920465737581253 -0.04897129535675049
-0.06943808495998383 -0.029540622606873512 0.03647800534963608
0.11026857793331146 -0.08807536214590073 -0.15269751846790314
-0.012488752603530884 -0.06728076189756393 0.04115012288093567
0.054882779717445374 -0.05820406228303909 -0.07281875610351562
-0.07276756316423416 -0.09987598657608032 -0.012001875787973404
-0.006273189559578896 -0.06937622278928757 -0.05061468109488487
-0.07064913213253021 -0.029978753998875618 0.0480043925344944
-0.03742222115397453 -0.09114591032266617 -0.18224476277828217
0.0044284239411354065 -0.07387097179889679 0.002786988392472267
0.04348781704902649 -0.11047340929508209 -0.2366131991147995
-0.03818177804350853 -0.06635888665914536 0.10658091306686401
-0.07884545624256134 -0.031492479145526886 -0.028698265552520752
0.012821270152926445 -0.08607598394155502 0.018217789009213448
-0.08874178677797318 0.019896090030670166 -0.23155300319194794
-0.06888507306575775 0.045328423380851746 -0.2765791714191437
-0.11978628486394882 0.061586253345012665 -0.08822359144687653
-0.003641604445874691 -0.09766784310340881 -0.09773966670036316
-0.0722927674651146 -0.011138342320919037 0.04814727231860161
-0.07867144048213959 -0.058563511818647385 -0.028068359941244125
0.011288518086075783 0.04249177500605583 -0.5097678899765015
-0.09972716867923737 0.1355501264333725 -0.12216154485940933
-0.07787680625915527 -0.0219569094479084 -0.007618943229317665
-0.06123027205467224 -0.061733491718769073 -0.31572043895721436
0.03187531232833862 -0.07511436194181442 0.06324358284473419
0.032957546412944794 -0.07248146831989288 -0.04213781654834747
0.020275060087442398 -0.11156685650348663 -0.10217060893774033
0.05532640218734741 -0.08441521227359772 0.05607543885707855
0.00532618910074234 -0.1052333414554596 -0.2028554081916809
0.04246905818581581 -0.0787387490272522 -0.07519732415676117
-0.0944475382566452 -0.06416407227516174 0.4227103590965271
-0.03775560110807419 -0.07987713813781738 -0.06946633756160736
0.07127583026885986 -0.09205783903598785 0.13413500785827637
-0.069545678794384 0.0320403054356575 0.04775004833936691
-0.11443374305963516 -0.04345766827464104 0.03024337813258171
-0.026003515347838402 -0.0805169939994812 0.043865546584129333
0.05771526321768761 -0.08228553831577301 -0.08809471130371094
-0.09370774775743484 -0.0023490060120821 -0.19675275683403015
0.05022098869085312 -0.06101243197917938 -0.027265943586826324
-0.06734880805015564 -0.061502695083618164 0.17956414818763733
0.0701896920800209 -0.07245862483978271 0.02342185005545616
-0.04733459651470184 -0.09832777827978134 0.1262635439634323
0.058271266520023346 -0.08329765498638153 -0.035324037075042725
0.060127194970846176 -0.08470180630683899 -0.17626622319221497
-0.09654495865106583 -0.032267190515995026 -0.12720724940299988
-0.0752880647778511 0.022542767226696014 0.032059282064437866
-0.07624901086091995 -0.020318903028964996 -0.02285340614616871
-0.10781367123126984 0.04529820382595062 -0.056928422302007675
-0.003939395770430565 -0.10203613340854645 0.06298474967479706
-0.08555395156145096 -0.05486873537302017 -0.015391857363283634
-0.07437064498662949 0.09792560338973999 -0.2055133432149887
0.07106795907020569 -0.09506526589393616 0.3016875982284546
0.10611142963171005 -0.06366109848022461 0.016583355143666267
0.040150292217731476 -0.07582657039165497 0.021535534411668777
0.09159024804830551 -0.07545500993728638 -0.03429631143808365
-0.09019201248884201 -0.05935069918632507 -0.142724871635437
0.11279182136058807 -0.0759911984205246 -0.0017550261691212654
-0.07098618149757385 0.0274721197783947 -0.012104926630854607
0.16521649062633514 -0.06973394751548767 0.07238496840000153
-0.05019909143447876 -0.08133266866207123 -0.056886039674282074
-0.09902804344892502 -0.06101680546998978 -0.20799210667610168
-0.11849279701709747 0.05148869752883911 -0.01680198684334755
-0.09963278472423553 0.07143212854862213 0.038693249225616455
-0.12461809813976288 0.0787280723452568 -0.053732506930828094
0.03873543441295624 -0.08317498862743378 -0.0019661523401737213
-0.05426850914955139 -0.07764948904514313 0.12805992364883423
-0.009796716272830963 -0.08165175467729568 0.18234293162822723
0.10560378432273865 -0.04550895839929581 -0.06123962253332138
-0.08436930179595947 0.08644407242536545 -0.003729782998561859
0.03341842442750931 -0.06598138064146042 0.13695178925991058
-0.08529341965913773 0.02864108420908451 0.020822064951062202
0.0007177069783210754 -0.12094718217849731 -0.06019962579011917
-0.07986896485090256 0.03846747800707817 -0.09837066382169724
-0.10193511843681335 0.12107588350772858 0.1278609335422516
-0.08685798943042755 -0.0062320297583937645 -0.013788286596536636
-0.06244844198226929 0.07541005313396454 -0.10999517887830734
-0.08739104121923447 -0.027181701734662056 -0.01980794407427311
0.06638026237487793 -0.06109560281038284 -0.020971477031707764
0.10637641698122025 -0.0894213318824768 0.008287368342280388
0.09685039520263672 -0.0648241713643074 0.011071834713220596
0.07110351324081421 -0.08332036435604095 -0.055390261113643646
0.061553046107292175 -0.1086166724562645 -0.060211800038814545
0.04373743012547493 -0.10701028257608414 0.19885960221290588
-0.074320949614048 0.08174601942300797 0.05605825036764145
-0.082798071205616 0.02660745568573475 0.11138996481895447
-0.07937881350517273 0.10793372988700867 0.14913266897201538
0.07319342344999313 -0.08835497498512268 0.07169002294540405
0.012210479006171227 -0.08663304895162582 -0.0361982099711895
-0.07651563733816147 -0.02826789580285549 0.04186663031578064
0.026154907420277596 -0.08068007975816727 -0.011972371488809586
0.0013893581926822662 -0.0720507949590683 0.017880044877529144
-0.07377111166715622 0.06683497875928879 0.06778720766305923
-0.07794225215911865 -0.07353074103593826 -0.02519596368074417
-0.10338757187128067 0.056759923696517944 -0.04489258676767349
0.008902095258235931 -0.07321525365114212 0.16020044684410095
0.05120183527469635 -0.12049536406993866 -0.010414200834929943
-0.03349645063281059 -0.07915502786636353 0.07060859352350235
0.039069078862667084 -0.0857185423374176 0.11643925309181213
-0.019191976636648178 -0.0679490864276886 0.032232046127319336
-0.05711590498685837 0.01328846625983715 0.10062456876039505
-0.027421794831752777 -0.0412399061024189 0.3471143841743469
-0.03667375445365906 -0.10296588391065598 -0.17953646183013916
0.031246356666088104 -0.07474315166473389 0.08615929633378983
-0.13394923508167267 0.05720190331339836 0.4125466048717499
0.05550133064389229 -0.08787672221660614 -0.045101314783096313
-0.079993836581707 0.021294239908456802 0.04085544869303703
-0.09106729924678802 -0.035527076572179794 -0.14253288507461548
-0.11025834083557129 -0.027820587158203125 -0.10104545950889587
-0.11267606914043427 0.05873456969857216 -0.23401139676570892
-0.08028237521648407 0.025631193071603775 0.040557440370321274
0.019598543643951416 -0.10545527935028076 -0.08869185298681259
-0.004998513497412205 -0.07369192689657211 0.029326042160391808
-0.08048125356435776 -0.0012826621532440186 0.12795290350914001
0.04651215672492981 -0.10155563801527023 -0.3570387661457062
-0.09965711832046509 -0.02759493514895439 0.00046023959293961525
-0.09172998368740082 0.03302628546953201 0.02417614683508873
-0.0717119351029396 -0.007367577403783798 -0.05018840730190277
0.0895187109708786 -0.0602661594748497 -0.03403852507472038
-0.09207373112440109 0.06280041486024857 0.018688101321458817
-0.10020844638347626 0.10354198515415192 0.06443314254283905
-0.09264986217021942 -0.03967403620481491 -0.004669295623898506
-0.08001981675624847 0.07911050319671631 0.021173939108848572
-0.09706374257802963 0.04323525354266167 0.059029385447502136
-0.0010161921381950378 -0.07472015917301178 0.02992488630115986
-0.09922967106103897 -0.017792852595448494 0.07614480704069138
0.0906793475151062 -0.06866125017404556 -0.0917489230632782
0.009462738409638405 -0.05746329203248024 0.09765015542507172
0.019684195518493652 -0.07780367136001587 0.04812195152044296
0.018833737820386887 -0.08640234172344208 0.14168106019496918
-0.0905526727437973 0.00021280255168676376 -0.15664717555046082
-0.0993325263261795 0.05072379112243652 -0.2212371975183487
0.017369506880640984 -0.07794207334518433 0.04637483134865761
-0.017406374216079712 -0.09319572895765305 -0.1771875023841858
0.06710850447416306 -0.08327902108430862 -0.06013961881399155
0.13890424370765686 -0.033230360597372055 -0.12249889969825745
0.00834478810429573 -0.06549756228923798 0.13282638788223267
-0.07552710920572281 0.1735895872116089 0.23254670202732086
0.0859515368938446 -0.09542981535196304 -0.1373724788427353
0.041117891669273376 -0.09861237555742264 -0.06979309767484665
0.05244050174951553 -0.07910126447677612 0.009781822562217712
0.13763803243637085 0.05131073296070099 -0.3780374825000763
0.12121318280696869 -0.01924101822078228 -0.03664647787809372
0.007497015874832869 -0.05710677057504654 0.023531638085842133
-0.05424606800079346 -0.028562113642692566 -0.028989451006054878
0.02038903534412384 -0.06973408162593842 0.16962659358978271
0.18008804321289062 -0.09343986213207245 0.3381475806236267
-0.03627187758684158 0.16214892268180847 0.03622664138674736
-0.008496209979057312 -0.0688866674900055 -0.17138388752937317
-0.0895305871963501 0.048581335693597794 0.006588270887732506
-0.09458253532648087 0.01958274468779564 -0.022141259163618088
0.03773820772767067 -0.08090236783027649 -0.003723733127117157
0.11920052021741867 -0.061707042157649994 -0.061562150716781616
-0.08326934278011322 -0.07203590869903564 0.13522639870643616
-0.03725960850715637 -0.0679483562707901 0.08075319230556488
-0.08757396787405014 0.011503439396619797 0.07470156997442245
0.13172917068004608 -0.08033488690853119 0.2756234407424927
-0.0632581040263176 -0.052039869129657745 0.053520817309617996
-0.11042970418930054 0.06250070035457611 0.05598421394824982
-0.016917068511247635 -0.09948276728391647 -0.3401879370212555
-0.04103437438607216 -0.05530279129743576 -0.10833445936441422
0.07148785144090652 -0.07169036567211151 -0.020491428673267365
-0.08364874869585037 -0.07530593127012253 0.07148457318544388
-0.11494889110326767 0.04101628065109253 -0.006933899596333504
-0.08982664346694946 0.014554126188158989 0.10747595131397247
-0.06803753972053528 0.19865453243255615 -0.10041190683841705
-0.0622873418033123 -0.06523019075393677 0.06581776589155197
-0.08385606110095978 0.11384506523609161 0.10413366556167603
0.018396247178316116 -0.11813565343618393 -0.04706955701112747
0.07357504218816757 -0.07301518321037292 0.050558093935251236
-0.08115896582603455 -0.04902341961860657 -0.048866257071495056
-0.07731223851442337 0.15712589025497437 0.276225209236145
-0.07315640151500702 0.01315428875386715 0.1664821356534958
-0.07951509207487106 0.022214137017726898 0.08257611840963364
-0.1007581502199173 -0.05957350879907608 -0.03942541033029556
-0.11194588989019394 0.033866673707962036 0.3437025547027588
-0.12729083001613617 0.06467681378126144 0.23197084665298462
-0.08463823050260544 0.01923413760960102 0.026793207973241806
-0.10047262907028198 0.026025481522083282 0.09585437178611755
-0.07690559327602386 -0.06611935794353485 0.13060837984085083
0.20446035265922546 -0.08786221593618393 -0.2050694227218628
-0.08083377778530121 -0.03706962987780571 -0.03185835853219032
0.12021955102682114 -0.10143386572599411 0.3475160300731659
-0.08365875482559204 0.07965361326932907 0.09572811424732208
-0.07972852885723114 0.044485315680503845 0.03631400316953659
-0.07618142664432526 -0.0580873042345047 -0.02075084298849106
-0.0858064740896225 -0.022158371284604073 0.04868863523006439
-0.01674412190914154 -0.08662579208612442 0.021414175629615784
-0.08385098725557327 -0.030070696026086807 0.022401344031095505
-0.01654173620045185 -0.07838024944067001 0.02723453752696514
0.10443709045648575 -0.07667943835258484 -0.025097763165831566
-0.08556541800498962 -0.05578133091330528 -0.046779096126556396
-0.0951741635799408 0.03539689630270004 0.0991186797618866
0.07686132192611694 -0.09088777005672455 0.02910400740802288
0.0005597323179244995 -0.0889587327837944 -0.1071469783782959
0.0677051693201065 -0.061670586466789246 -0.011285439133644104
-0.08404193073511124 0.026172690093517303 0.004140598699450493
0.021922465413808823 -0.0815557986497879 0.13161927461624146
0.17360419034957886 -0.015028471127152443 0.33574795722961426
0.0321556031703949 -0.11384621262550354 -0.2344297170639038
-0.053428277373313904 -0.06591369211673737 0.22175076603889465
-0.09083984792232513 -0.0078079476952552795 0.06601674854755402
-0.09046979248523712 0.046223126351833344 0.01067657396197319
-0.06072923168540001 0.018141228705644608 -0.1050831750035286
-0.016926242038607597 -0.07111269235610962 0.003587983548641205
-0.0768505409359932 -0.05368741601705551 -0.04163040965795517
-0.07443539053201675 -0.05190182477235794 0.01850339211523533
-0.1061265617609024 0.0712837278842926 -0.009723272174596786
-0.10298814624547958 0.07893180847167969 -0.060237932950258255
-0.018512967973947525 -0.11225008964538574 0.154496431350708
0.03100499138236046 -0.08931931108236313 -0.005865992978215218
0.12431570887565613 -0.053175535053014755 -0.3742310106754303
-0.06555637717247009 -0.029806669801473618 0.04036480933427811
0.1094280332326889 -0.050081875175237656 -0.0962739884853363
0.0117933489382267 -0.12471321225166321 0.024094145745038986
-0.06767990440130234 0.08260101824998856 0.027833642438054085
-0.01826438121497631 -0.042715899646282196 0.058955803513526917
0.3482498824596405 0.04669047147035599 -0.08571026474237442
-0.1059459000825882 0.017261799424886703 0.1081930473446846
-0.052946120500564575 -0.057641804218292236 0.1397206336259842
-0.09454133361577988 0.015689309686422348 -0.13908368349075317
0.006268100813031197 0.031933821737766266 0.36712586879730225
-0.0787808746099472 0.018591569736599922 0.016883989796042442
0.04435708373785019 -0.07770092785358429 -0.018473338335752487
0.05115053430199623 -0.11513940244913101 0.3970508873462677
-0.06099734455347061 -0.054300058633089066 -0.3930126130580902
0.025369707494974136 -0.08040381968021393 -0.027469700202345848
0.0626673772931099 -0.11565731465816498 -0.15698018670082092
0.004952181130647659 -0.07554131001234055 0.0017648115754127502
-0.04366917535662651 0.1783389151096344 -0.048665229231119156
0.050863880664110184 -0.07687656581401825 0.007588762324303389
-0.07404011487960815 -0.025349674746394157 -0.0319378525018692
0.12589694559574127 -0.0816618800163269 0.02945559471845627
-0.10024349391460419 0.14541523158550262 0.19623981416225433
0.06686041504144669 -0.0859123095870018 -0.016366424039006233
-0.08721427619457245 0.04520023614168167 0.06299483776092529
0.039959292858839035 -0.07491736114025116 -0.0284794382750988
0.08982224017381668 -0.08454234898090363 -0.02237660437822342
-0.06838447600603104 0.014665254391729832 0.005247672088444233
-0.102413110435009 0.11487844586372375 -0.1071121022105217
0.04577742516994476 -0.07824702560901642 -0.05490583926439285
-0.10478188097476959 0.1241806298494339 0.2357376664876938
-0.08315236866474152 -0.033586908131837845 0.0008778292685747147
0.004781223833560944 -0.07897239178419113 0.008018089458346367
0.0011501507833600044 -0.06499791145324707 0.013237649574875832
0.22594772279262543 -0.08125600218772888 0.26750707626342773
-0.06011774390935898 -0.06179499998688698 0.07822635024785995
-0.10930623859167099 0.055505093187093735 0.014982212334871292
0.06414339691400528 -0.05910089984536171 0.005153035745024681
0.07075559347867966 -0.07159353792667389 -0.011489961296319962
0.01667937822639942 -0.07622551918029785 0.12057336419820786
0.07367699593305588 -0.07342389225959778 -0.016583222895860672
0.019796859472990036 -0.06359519809484482 0.03100675344467163
-0.05805143713951111 -0.09373272210359573 -0.04656510055065155
-0.0900399386882782 0.0040630195289850235 0.22230984270572662
0.0366368368268013 -0.10414417088031769 0.3161908984184265
0.06367452442646027 -0.06949781626462936 0.03441285341978073
0.028740623965859413 0.39328309893608093 0.35771268606185913
-0.12003587186336517 0.08133543282747269 0.10632798075675964
0.037739887833595276 -0.08363327383995056 -0.07839932292699814
0.12869718670845032 -0.09111285954713821 0.23553764820098877
-0.06572006642818451 -0.057579703629016876 0.07788214832544327
-0.08085569739341736 -0.03554864972829819 0.0577428862452507
-0.09194639325141907 0.016563300043344498 0.09496307373046875
0.09042180329561234 -0.045551687479019165 0.11987899243831635
-0.08215562999248505 -0.034212782979011536 0.019309137016534805
-0.07958240807056427 0.12619346380233765 0.038751065731048584
-0.12251696735620499 -0.002814306877553463 -0.2527804970741272
0.11019477993249893 -0.07427281886339188 -0.010218952782452106
0.08794408291578293 -0.05308523029088974 -0.027164079248905182
-0.011195076629519463 -0.08233910799026489 -0.034845899790525436
-0.09595008939504623 0.030399585142731667 0.058092109858989716
-0.09732972085475922 0.08296413719654083 0.1188671886920929
-0.09303826093673706 0.016763366758823395 0.2930229902267456
0.07195719331502914 -0.09290621429681778 -0.02405187487602234
-0.11607155948877335 0.13375462591648102 0.04921958968043327
0.05300472676753998 -0.09574394673109055 0.04501315578818321
-0.07664717733860016 0.01171744242310524 0.013360239565372467
-0.07286906242370605 -0.05246821790933609 -0.036902785301208496
0.0019634710624814034 -0.07213249802589417 0.06382650882005692
-0.07065115869045258 -0.010524357669055462 0.1417100876569748
0.07129687815904617 -0.08419161289930344 0.2343277484178543
-0.07967963814735413 0.009407201781868935 0.03806237131357193
-0.10924845933914185 0.04075238108634949 0.00633026659488678
-0.0911443829536438 0.1144861951470375 0.14774224162101746
-0.08566524088382721 0.0688447654247284 0.06916212290525436
-0.05720025300979614 -0.02307118847966194 -0.22042499482631683
-0.05182464048266411 0.09750369191169739 -0.020728956907987595
-0.09285798668861389 0.01917099952697754 0.07295681536197662
-0.010432317852973938 -0.07001891732215881 -0.040700074285268784
-0.03354986384510994 0.15909822285175323 0.011707352474331856
0.017330801114439964 -0.07345813512802124 0.010379509069025517
-0.07958471775054932 -0.05190158635377884 -0.04726380854845047
-0.007452839519828558 -0.06464655697345734 -0.007391642779111862
-0.09379652142524719 0.02403414435684681 -0.010913056321442127
0.09936618059873581 -0.06777194887399673 0.09305077791213989
0.044598713517189026 -0.07681616395711899 -0.04847737401723862
-0.019639797508716583 -0.1098044365644455 -0.14803843200206757
-0.036533720791339874 -0.05465589836239815 0.17229455709457397
-0.06287086009979248 -0.052666958421468735 -0.016610005870461464
0.024511072784662247 -0.11076651513576508 -0.019368154928088188
-0.09885460138320923 0.047352783381938934 0.025600187480449677
0.1292867511510849 -0.07172873616218567 -0.29687535762786865
0.051766835153102875 -0.0710543617606163 0.03416168689727783
-0.042026691138744354 -0.09233800321817398 0.03701670840382576
-0.06587688624858856 -0.021685166284441948 0.14376738667488098
-0.11950448900461197 0.0629192367196083 0.2850772738456726
0.08487720787525177 -0.06237978860735893 0.018592096865177155
-0.07434730976819992 -0.0389695018529892 0.31710532307624817
-0.08708957582712173 0.06438203155994415 0.16386103630065918
0.024897679686546326 -0.09403126686811447 -0.10176055878400803
0.03991570323705673 -0.08110921829938889 -0.017808981239795685
0.045365139842033386 -0.08439040184020996 -0.03200622275471687
0.03425195813179016 -0.07763633131980896 0.12326875329017639
-0.1148621141910553 0.09812289476394653 0.15778809785842896
-0.09073801338672638 0.014766097068786621 0.0036839786916971207
-0.06135784834623337 0.11065234988927841 -0.1623222529888153
0.03973134607076645 -0.07125186920166016 0.0525403767824173
0.09490414708852768 -0.08597585558891296 -0.13161227107048035
0.08883203566074371 -0.07377076148986816 -0.03809293732047081
-0.09237611293792725 -0.015213867649435997 -0.2907845973968506
-0.07734549045562744 -0.04675495624542236 -0.0709582194685936
-0.013548307120800018 -0.06834568083286285 0.057676516473293304
-0.039746955037117004 -0.07162878662347794 0.09627153724431992
-0.09827344864606857 0.05122976005077362 0.2460344135761261
-0.09540633857250214 0.12789566814899445 -0.14490461349487305
-0.07405322790145874 -0.009105042554438114 0.23316852748394012
-0.017285799607634544 -0.07822324335575104 0.23025956749916077
-0.07197903096675873 0.00557248480618 0.10928428918123245
-0.07184727489948273 -0.020630832761526108 0.048608433455228806
0.009472435340285301 -0.08828859776258469 0.012637939304113388
0.10893888026475906 -0.03888552635908127 0.029616042971611023
0.07368269562721252 -0.06932130455970764 -0.1654328852891922
-0.024851754307746887 -0.08367449045181274 0.02633807808160782
0.0044726962223649025 -0.07354773581027985 0.013741696253418922
-0.08896180987358093 0.007634861394762993 -0.12260039895772934
0.07735911756753922 -0.09517556428909302 0.23400694131851196
-0.02889084257185459 -0.02883465401828289 0.2406417578458786
0.0694977417588234 -0.06136185675859451 -0.00299044419080019
-0.08763962984085083 0.17657917737960815 -0.17668119072914124
-0.029095709323883057 -0.042562082409858704 0.0783713236451149
0.22969749569892883 -0.05322244390845299 0.00616662111133337
-0.025167135521769524 -0.1282869577407837 -0.13923808932304382
-0.07260546088218689 0.001453218748793006 -0.02997541055083275
-0.12280921638011932 -0.004695803392678499 -0.14521169662475586
-0.06593162566423416 0.045347925275564194 -0.04692907631397247
0.04411816596984863 -0.07858601957559586 -0.11889511346817017
0.00717722624540329 -0.07454584538936615 0.260931134223938
0.011308399960398674 0.06110936775803566 0.12665243446826935
-0.07430177927017212 0.008192897774279118 -0.014188656583428383
-0.08315589278936386 -0.021428095176815987 -0.010733580216765404
-0.013973217457532883 -0.08509344607591629 0.033032581210136414
0.06302051246166229 -0.05529842525720596 -0.3091786503791809
0.001985577866435051 -0.0782185047864914 0.007296444848179817
-0.061812035739421844 0.1035495400428772 -0.2854521572589874
-0.08615471422672272 0.05493394657969475 0.008503103628754616
0.05202590674161911 -0.07945795357227325 -0.026285920292139053
-0.08733589947223663 0.032563358545303345 -0.03400558978319168
0.04818300902843475 -0.07258331030607224 -0.2107885777950287
-0.06588032841682434 -0.017349498346447945 -0.008900337852537632
-0.09480015933513641 0.0724247619509697 0.02843814715743065
-0.0760607123374939 -0.019073624163866043 0.06076399236917496
-0.06957507133483887 0.07688933610916138 0.0773911401629448
0.05410240590572357 -0.07938215881586075 0.006250438280403614
-0.11495745927095413 0.12478426843881607 0.32103636860847473
-0.01292857713997364 -0.063283771276474 -0.03676750510931015
-0.08521634340286255 -0.02375543862581253 -0.12018390744924545
0.09631175547838211 -0.08318749070167542 0.0023996029049158096
-0.05908588692545891 -0.007500392384827137 0.05266755819320679
0.07448957860469818 -0.0698598101735115 -0.028835278004407883
-0.061030663549900055 -0.05997239798307419 -0.06592849642038345
-0.10422695428133011 0.026262730360031128 0.042268410325050354
-0.07607098668813705 -0.006677716970443726 0.05515315383672714
0.10770534723997116 -0.06581071764230728 -0.11040531098842621
-0.06921222060918808 -0.023540683090686798 -0.013299793004989624
-0.09372226893901825 0.05055876821279526 0.07739928364753723
-0.07169541716575623 0.032122090458869934 -0.05972690135240555
-0.0785626694560051 -0.013449380174279213 -0.3301768898963928
-0.07580459862947464 -0.004939191043376923 0.2813829481601715
0.11383695900440216 -0.09613009542226791 -0.08721289038658142
-0.0845801830291748 0.06580047309398651 -0.2207951545715332
0.052708949893713 -0.07733071595430374 -0.02483672834932804
-0.02507438138127327 -0.10842980444431305 0.3558025658130646
0.016462162137031555 -0.10717751830816269 0.13074687123298645
-0.08388398587703705 0.02509479597210884 0.007836292497813702
-0.09560951590538025 0.02513699047267437 0.01940203830599785
0.11340347677469254 -0.06953295320272446 -0.013755629770457745
-0.008121286518871784 -0.09309419989585876 -0.05713159963488579
-0.06765593588352203 -0.01033671572804451 0.04556269198656082
-0.07057890295982361 0.1474161595106125 0.35089462995529175
-0.10503559559583664 -0.000798296183347702 0.3229750394821167
0.07054121047258377 -0.09512206166982651 -0.09152156859636307
0.016572095453739166 -0.11006932705640793 -0.16457319259643555
-0.11650173366069794 0.03231164813041687 0.002421976998448372
-0.03821246325969696 -0.08033309876918793 -0.22437818348407745
0.04034954309463501 -0.08792945742607117 -0.06329195201396942
0.0060483962297439575 -0.10994606465101242 0.27633070945739746
-0.005996279418468475 -0.06912007182836533 0.02663911134004593
0.091303251683712 -0.006648523733019829 0.23753803968429565
-0.01114598661661148 -0.06010019779205322 -0.041864246129989624
0.00982542335987091 -0.09825626760721207 -0.06122278422117233
-0.1020255759358406 0.04308026656508446 0.026172511279582977
0.05764346197247505 -0.06642667204141617 0.046788379549980164
0.06423960626125336 -0.0874171182513237 -0.02131379209458828
-0.08191989362239838 0.006271693855524063 0.25288572907447815
-0.08286038041114807 0.10383551567792892 -0.04752255603671074
-0.07454662024974823 0.13211384415626526 0.057498566806316376
-0.04967711493372917 -0.09358958154916763 -0.06738908588886261
-0.0618177205324173 -0.051606208086013794 0.1045408695936203
-0.11413800716400146 0.11055663228034973 -0.019452497363090515
-0.06791317462921143 -0.024912213906645775 0.03839652240276337
0.021395236253738403 -0.06883204728364944 0.09084324538707733
0.09188344329595566 -0.09361430257558823 -0.09491634368896484
-0.03742478787899017 -0.07100237905979156 0.07347291707992554
-0.08499033749103546 -0.03811885789036751 0.05381564795970917
0.08006840944290161 -0.06443144381046295 0.02899499051272869
-0.08200117945671082 0.01976892724633217 0.09346071630716324
0.08542707562446594 -0.06754099577665329 -0.022510003298521042
0.037376295775175095 -0.07106790691614151 0.007479967549443245
-0.0994299054145813 0.03324730694293976 -0.024022750556468964
-0.08413463830947876 0.24003589153289795 0.04295119270682335
-0.07495018094778061 0.09387784451246262 0.06927812099456787
0.04993978887796402 -0.07875044643878937 0.06478500366210938
0.08915498107671738 -0.0783175677061081 0.09574168920516968
-0.03930682688951492 -0.06939558684825897 -0.28043583035469055
-0.08312781900167465 -0.043401360511779785 -0.07048141211271286
-0.06243988499045372 -0.08631228655576706 -0.07826168090105057
0.04625798016786575 -0.07847602665424347 0.0528564527630806
-0.06260260194540024 -0.07833259552717209 -0.042520925402641296
-0.08879464864730835 0.0622028186917305 0.025905560702085495
-0.008568447083234787 -0.09788116067647934 -0.062242038547992706
0.021151041612029076 -0.08570685982704163 -0.1527387797832489
0.12258511781692505 -0.06748484075069427 0.0007879491895437241
0.08755417168140411 -0.09107521921396255 0.15078561007976532
0.096583791077137 -0.10798081755638123 0.4096902310848236
0.09748636931180954 -0.06818780303001404 0.011790500022470951
-0.0922284722328186 -0.012559784576296806 -0.008788414299488068
-0.10215435177087784 0.02792237140238285 0.08931217342615128
0.052383407950401306 -0.0879456177353859 -0.03538189083337784
0.1449713557958603 -0.013306742534041405 -0.06229215860366821
-0.0743807777762413 -0.037652574479579926 0.011983193457126617
0.12092925608158112 -0.06555914878845215 0.013828221708536148
-0.06424429267644882 -0.021971585229039192 0.10854291170835495
-0.06168529391288757 -0.08253531157970428 -0.15725849568843842
0.13384205102920532 -0.0630352795124054 -0.07205532491207123
0.013628430664539337 -0.08386638760566711 -0.025661641731858253
0.10445903986692429 -0.058912552893161774 -0.022248638793826103
0.07682548463344574 -0.05971299484372139 -0.036532189697027206
0.06991183757781982 -0.08487876504659653 0.029929660260677338
0.05898241698741913 -0.08390646427869797 0.045870497822761536
-0.09152958542108536 0.12953776121139526 0.4293115437030792
-0.1223156526684761 0.042403846979141235 0.14941464364528656
0.10461874306201935 -0.07173941284418106 0.014400772750377655
-0.09371016919612885 -0.042514972388744354 0.26667726039886475
0.06107369065284729 -0.09709345549345016 0.03643984720110893
-0.06431689113378525 -0.03992561995983124 -0.11626086384057999
-0.06529073417186737 -0.06972682476043701 -0.1769123673439026
-0.08266635984182358 0.07700155675411224 0.021957047283649445
-0.06208304315805435 0.16012972593307495 0.09016051143407822
-0.11159593611955643 -0.044904667884111404 0.1118779107928276
-0.00597284734249115 -0.05316872522234917 0.23353512585163116
-0.08212019503116608 -0.052290044724941254 0.024206697940826416
-0.06781928241252899 0.03001576103270054 -0.04431472346186638
0.047325603663921356 -0.08138813823461533 -0.006251323968172073
-0.047817133367061615 -0.10191060602664948 -0.047617122530937195
-0.09069301187992096 -0.07831785827875137 -0.007145822048187256
0.10947219282388687 -0.05928957462310791 -0.012793360278010368
0.07905165106058121 -0.08272482454776764 0.06422383338212967
0.08571232110261917 -0.06804388761520386 -0.015622186474502087
-0.08487775921821594 -0.048638712614774704 -0.13979695737361908
-0.09214447438716888 0.009924432262778282 -0.050567377358675
0.3336757719516754 0.05572586506605148 0.10186365246772766
0.10424844175577164 -0.058075204491615295 -0.005553959868848324
-0.08858273178339005 0.06439090520143509 -0.020727165043354034
0.04882745444774628 -0.0769396722316742 -0.0015686731785535812
0.07061897963285446 -0.0818072110414505 0.12029136717319489
-0.10910972952842712 -0.04669637233018875 -0.1449975222349167
-0.0831204354763031 -0.04827969893813133 -0.05354524031281471
-0.0796462744474411 -0.01909092254936695 -0.003016650676727295
-0.05468790605664253 -0.04690887778997421 0.11409186571836472
0.021162746474146843 -0.11814612150192261 -0.2119770050048828
-0.10166174918413162 0.025012437254190445 0.0007708584889769554
-0.1212347075343132 0.07718554139137268 0.04814358055591583
-0.09702770411968231 0.042264506220817566 0.005595296621322632
0.05611559748649597 -0.08529111742973328 -0.0016284137964248657
