-0.08244285732507706 0.023392274975776672 -0.08344259858131409
0.07706847786903381 -0.048542529344558716 0.004546491429209709
-0.0838102251291275 -0.03603814169764519 -0.018480762839317322
-0.1131923496723175 -0.02191775105893612 -0.26385194063186646
0.08150781691074371 -0.05371364578604698 -0.022573197260499
-0.07215705513954163 -0.014771074056625366 0.0017107955645769835
-0.07328812032938004 -0.02362561970949173 0.04032066464424133
0.009225230664014816 -0.1094772070646286 -0.039225563406944275
0.052528902888298035 -0.10843794047832489 -0.1318047195672989
0.05094344913959503 -0.06816072016954422 0.010071368888020515
-0.07258538901805878 -0.015880879014730453 0.001844925805926323
0.04577579349279404 -0.06409056484699249 0.0481962114572525
-0.00981233548372984 -0.056493017822504044 0.24336928129196167
-0.059379130601882935 0.07543080300092697 -0.2929283380508423
0.006397198885679245 -0.08831493556499481 0.019671624526381493
0.05047018826007843 -0.06946288049221039 0.00970359705388546
-0.08368980884552002 -0.030676672235131264 0.00537260714918375
-0.08876045048236847 -0.030925463885068893 0.00015929341316223145
0.055837079882621765 -0.05941854044795036 -0.017870023846626282
-0.10268978774547577 -0.050931379199028015 -0.13860028982162476
-0.0926472395658493 -0.0384189747273922 0.01402016170322895
-0.08687176555395126 -0.024602459743618965 -0.028934307396411896
-0.07244399189949036 0.006639495491981506 0.017869776114821434
-0.07255785912275314 0.008742647245526314 0.019491661339998245
0.05941226705908775 -0.07198425382375717 -0.028865044936537743
0.007177682593464851 -0.08954043686389923 0.019767334684729576
-0.10193842649459839 -0.04452645778656006 -0.1494285762310028
-0.01552756316959858 -0.0611359179019928 0.2315484881401062
-0.04278884083032608 -0.0034324098378419876 0.14388646185398102
-0.08536234498023987 0.012683925218880177 -0.33729088306427
0.06168876960873604 -0.05528954043984413 -0.029536258429288864
-0.0732797384262085 0.0016990061849355698 -0.10507827997207642
0.030999941751360893 -0.0881178081035614 0.005065857898443937
-0.08342660963535309 -0.03683813661336899 -0.018306728452444077
0.08212106674909592 -0.05384185537695885 -0.022589698433876038
-0.02446245215833187 -0.027306437492370605 0.36704307794570923
0.003853119909763336 -0.03982631117105484 0.2348494827747345
-0.08384885638952255 -0.017850972712039948 -0.029737967997789383
0.06566081941127777 -0.05417303740978241 0.02474222518503666
-0.06038035452365875 0.04435938969254494 -0.06441864371299744
-0.07153210788965225 0.006684430874884129 0.021951738744974136
0.0008208230137825012 -0.03918401151895523 0.1696927845478058
-0.10076792538166046 -0.057248782366514206 -0.05603964626789093
-0.07298432290554047 0.06531081348657608 -0.3120419383049011
-0.06959927827119827 0.022333301603794098 -0.0011237431317567825
-0.08298280090093613 -0.03404039517045021 -0.020015183836221695
0.012867852114140987 -0.08933979272842407 0.051901593804359436
-0.07678519934415817 0.011508209630846977 -0.0495465062558651
0.05830925703048706 -0.07236318290233612 -0.028575455769896507
0.08298300206661224 -0.05427391827106476 -0.022690031677484512
-0.0782448947429657 -0.01656103879213333 -0.019566969946026802
0.039437174797058105 -0.03895479813218117 0.11684327572584152
0.04799391329288483 -0.06617255508899689 0.008038775995373726
-0.07170364260673523 -0.01308014988899231 0.05070870742201805
-0.08873189985752106 -0.023392684757709503 -0.05318867042660713
-0.05578179657459259 0.05462140589952469 -0.21901080012321472
-0.07229143381118774 0.007781513035297394 0.019400175660848618
0.0026545708533376455 -0.1140492632985115 -0.039451539516448975
-0.071931853890419 -0.015471738763153553 -0.0011035725474357605
-0.07415783405303955 0.038767874240875244 -0.14778068661689758
-0.06329654902219772 -0.12460372596979141 -0.1232592761516571
-0.0904417484998703 -0.03935408592224121 0.01333046704530716
0.05039704591035843 -0.06725328415632248 0.010250477120280266
0.007778385188430548 -0.09001898765563965 0.01945917308330536
-0.06630481034517288 0.07229826599359512 -0.2695988714694977
-0.07860412448644638 -0.016023973003029823 -0.018845275044441223
-0.04601446911692619 -0.03483181819319725 0.1566615253686905
0.0820942223072052 -0.05483748018741608 -0.02419612742960453
-0.08473275601863861 -0.02844415418803692 0.003869475796818733
0.07820668816566467 -0.1118873804807663 -0.22842928767204285
0.06514763832092285 -0.10817906260490417 -0.38151171803474426
0.049144238233566284 -0.060071900486946106 0.03662639856338501
0.10121519863605499 -0.040587618947029114 -0.10825133323669434
0.11838677525520325 -0.08848276734352112 -0.2500930428504944
-0.001211024820804596 -0.048214398324489594 0.23376068472862244
0.0527370423078537 -0.08933888375759125 -0.04447705298662186
0.04936559870839119 -0.08976414054632187 -0.06402570754289627
-0.07918182760477066 -0.015639957040548325 -0.020468708127737045
-0.08407925069332123 -0.03421461209654808 -0.019243769347667694
0.03807918354868889 -0.0897873044013977 0.015520893968641758
0.058538831770420074 -0.07194361090660095 -0.02789047174155712
0.03200424462556839 -0.12041834741830826 -0.11504586040973663
-0.08400388807058334 -0.026594655588269234 -0.01543530821800232
0.06600753962993622 -0.05458059534430504 0.023366980254650116
0.003035411238670349 -0.03966008126735687 0.27979350090026855
-0.014293065294623375 -0.05878220498561859 0.3957602381706238
0.05195470154285431 -0.05889072269201279 -0.0058719865046441555
0.045531414449214935 -0.0646708756685257 0.006131451576948166
-0.07206429541110992 0.007353495340794325 0.017849218100309372
-0.05566069483757019 0.0381629541516304 -0.04694297909736633
-0.022155512124300003 -0.04728812724351883 0.2962322235107422
-0.050552405416965485 0.05211604759097099 -0.3826432228088379
0.06161141395568848 -0.05944371595978737 -0.0383986234664917
0.09831489622592926 -0.051345162093639374 -0.050993386656045914
-0.09648031741380692 -0.0189613439142704 -0.3281272053718567
-0.07304529845714569 -0.015009744092822075 0.0011364426463842392
0.017266057431697845 -0.035446587949991226 0.1446225792169571
0.0014612842351198196 -0.12069349735975266 -0.05363975837826729
0.046664394438266754 -0.03498390316963196 0.10755269229412079
0.031236279755830765 -0.08791136741638184 0.005864273756742477
0.09432950615882874 -0.05430340766906738 -0.08561771363019943
-0.07227529585361481 -0.10802415013313293 -0.17030394077301025
-0.08280552178621292 -0.08136843144893646 0.03417976200580597
0.008360538631677628 -0.04135105758905411 0.22434934973716736
0.02873031049966812 -0.08823516964912415 0.005533336661756039
-0.07272893190383911 -0.015136100351810455 0.04885635897517204
0.05483010411262512 -0.06019734591245651 -0.019522713497281075
-0.09963646531105042 -0.049349233508110046 -0.06525391340255737
-0.0732121467590332 -0.09448547661304474 -0.20103508234024048
0.030425138771533966 -0.0897817611694336 0.004231564700603485
0.008461937308311462 -0.08926413953304291 0.01979721710085869
0.0815986692905426 -0.05470401048660278 -0.023050855845212936
-0.009819500148296356 -0.06173517554998398 0.22456851601600647
0.03461551293730736 -0.09233244508504868 0.02883479744195938
0.029307618737220764 -0.11541634798049927 -0.24805796146392822
0.08289379626512527 -0.05435427278280258 -0.023474454879760742
-0.08328717947006226 -0.03013984113931656 0.001322966068983078
0.06089213117957115 -0.08276362717151642 -0.06729893386363983
-0.08110310882329941 -0.09152381122112274 -0.25893858075141907
-0.0968131422996521 -0.050865836441516876 -0.176946759223938
-0.07045736908912659 -0.02272663079202175 0.036020226776599884
-0.055581528693437576 0.03672115504741669 -0.049774833023548126
0.054026514291763306 -0.05771060287952423 -0.020333366468548775
0.0496145561337471 -0.08980147540569305 -0.06417728215456009
0.06030798703432083 -0.1109737679362297 -0.28260695934295654
0.02704109624028206 -0.06780038774013519 0.10523481667041779
-0.10550831258296967 0.02496843785047531 -0.25686758756637573
-0.08998467028141022 -0.024938246235251427 -0.05562203750014305
0.08177030831575394 -0.053824469447135925 -0.02442953549325466
0.008893266320228577 -0.08923851698637009 0.017984455451369286
-0.029759174212813377 0.006845551542937756 0.1402181088924408
0.0414506196975708 -0.11479416489601135 -0.2031272053718567
-0.10414155572652817 -0.04383615031838417 -0.06299440562725067
-0.06720851361751556 0.08279316127300262 -0.2814774513244629
-0.02547869086265564 -0.028404831886291504 0.36682021617889404
0.056071363389492035 -0.05830802023410797 -0.01906033791601658
0.04094216972589493 -0.03733420372009277 0.11963699012994766
-0.08867472410202026 -0.030959127470850945 -0.0001304224133491516
-0.007982930168509483 -0.042086031287908554 0.38085833191871643
-0.08849799633026123 -0.03315112739801407 -0.0012834742665290833
0.052273400127887726 -0.05579636991024017 0.07028370350599289
0.04710424691438675 -0.08766727149486542 0.05223190411925316
0.07102656364440918 -0.055163607001304626 -0.0372621975839138
-0.06342627108097076 -0.12179681658744812 -0.15811608731746674
-0.07305178791284561 -0.01517398189753294 0.0005088108591735363
-0.07627949863672256 0.017790749669075012 -0.3878089189529419
-0.08433112502098083 -0.027720201760530472 0.003055192530155182
0.07621648162603378 -0.054692596197128296 0.002342771738767624
0.10585633665323257 -0.047627005726099014 -0.1424066573381424
-0.0782025009393692 -0.016593314707279205 -0.0190218985080719
-0.08604781329631805 -0.023377390578389168 -0.012545508332550526
-0.018425017595291138 -0.09056320786476135 0.0510137602686882
0.0570441409945488 -0.05823628604412079 -0.018525291234254837
-0.04640069603919983 0.05084823817014694 -0.09282499551773071
-0.04356556013226509 0.008129879832267761 0.08539478480815887
0.10660877078771591 -0.07033360749483109 -0.3124900460243225
0.051325637847185135 -0.059210218489170074 -0.007274366915225983
-0.07270955294370651 -0.01568165421485901 0.0007389970123767853
-0.07131630927324295 0.00835984107106924 0.020358949899673462
-0.08389820158481598 -0.03494555503129959 -0.01855952851474285
0.09063008427619934 -0.1077580451965332 -0.2042616754770279
-0.09849483519792557 -0.04606667160987854 -0.09469124674797058
-0.013765068724751472 -0.1149427592754364 -0.022433917969465256
-0.07837194204330444 -0.01756385713815689 -0.01892111450433731
-0.07230810075998306 -0.014516135677695274 0.002212862018495798
-0.10027903318405151 -0.05545899271965027 -0.056730881333351135
0.006761515513062477 -0.11360527575016022 -0.06360943615436554
-0.09030735492706299 -0.08666986227035522 -0.05709395557641983
-0.0777188092470169 0.04918995499610901 -0.3740432560443878
0.030566144734621048 -0.08854475617408752 0.005386373493820429
-0.07615724205970764 -0.05763690918684006 0.0892459824681282
0.04782094806432724 -0.06542981415987015 0.005880493670701981
-0.05812598392367363 0.05620710179209709 -0.13889744877815247
0.08300119638442993 -0.054768916219472885 -0.023737788200378418
-0.07130119949579239 0.008021256886422634 0.019034627825021744
0.004247996956110001 -0.12120816111564636 -0.11712043732404709
-0.07434641569852829 -0.027365753427147865 0.06423816829919815
0.036323655396699905 -0.09051261097192764 0.011543281376361847
0.041544292122125626 -0.10708723217248917 -0.05648065358400345
-0.09875351190567017 -0.0491056852042675 -0.06580936908721924
-0.08280332386493683 -0.015799110755324364 -0.02905816212296486
0.048483435064554214 -0.06670961529016495 0.005157016217708588
-0.0835544615983963 -0.03035598248243332 0.00290713831782341
-0.04342913627624512 0.0066375695168972015 0.08597413450479507
0.05641385167837143 -0.05953240767121315 -0.018649781122803688
-0.008083581924438477 -0.050044093281030655 0.2584504783153534
-0.07471068203449249 0.002958962693810463 0.04809047654271126
0.05993667617440224 -0.054965294897556305 -0.02990313060581684
0.045236606150865555 -0.059582412242889404 0.07585041224956512
-0.04269343987107277 0.008349250070750713 0.08287128806114197
-0.0842631459236145 -0.036116499453783035 -0.019648093730211258
0.0708404928445816 -0.05214323848485947 0.021448340266942978
-0.00840776413679123 -0.025944314897060394 0.24400299787521362
-0.09258802235126495 -0.028547020629048347 -0.06555569171905518
-0.03060832992196083 0.004830420017242432 0.13865791261196136
-0.0725410208106041 -0.014954717829823494 0.0007034577429294586
0.052702926099300385 -0.05750057101249695 0.050035618245601654
0.0016603358089923859 -0.03808028995990753 0.2565354108810425
0.05605684965848923 -0.058271635323762894 -0.019488181918859482
-0.04129588603973389 0.009293286129832268 0.08324877917766571
-0.04201336205005646 -0.10977444052696228 0.040489938110113144
-0.08936499059200287 -0.03050769679248333 -0.001448916271328926
0.04543027654290199 -0.06442496925592422 0.007337752729654312
0.040071409195661545 -0.07118281722068787 0.0798262357711792
-0.07106606662273407 0.007917143404483795 0.017503879964351654
-0.09835364669561386 0.026483695954084396 -0.18026892840862274
0.11758564412593842 -0.06491343677043915 -0.18851222097873688
-0.042013585567474365 0.012052821926772594 0.08233100175857544
-0.08588922023773193 -0.0400412455201149 -0.33406805992126465
0.08129070699214935 -0.0535285621881485 -0.022765714675188065
-0.08367356657981873 -0.0287492573261261 0.003778735175728798
0.07749487459659576 -0.08258308470249176 -0.08660337328910828
-0.07894500344991684 -0.018110129982233047 -0.020939666777849197
-0.031064840033650398 0.0029046088457107544 0.13890978693962097
0.04521908611059189 -0.065904900431633 0.007565449923276901
-0.11732196807861328 0.002749944105744362 -0.2593178451061249
-0.07831587642431259 -0.018263597041368484 -0.018765486776828766
0.060640692710876465 -0.05620705708861351 -0.030595341697335243
0.04937472194433212 -0.06666570156812668 0.008569976314902306
0.12560316920280457 -0.054290831089019775 -0.263938844203949
-0.07907690107822418 -0.015910815447568893 -0.01910253055393696
0.02488798089325428 -0.1175270527601242 -0.11873920261859894
-0.030012723058462143 0.003196917474269867 0.13843007385730743
-0.07427968084812164 -0.013745248317718506 0.0002251576806884259
0.04201701283454895 -0.11235921084880829 -0.2299802601337433
-0.0709199532866478 0.00724177248775959 0.01831420324742794
0.11870232224464417 -0.0850658193230629 -0.22169703245162964
0.10125847160816193 -0.09457626938819885 -0.27487194538116455
-0.06939487159252167 -0.022775793448090553 0.03428737074136734
-0.09817031025886536 -0.046702805906534195 -0.08042368292808533
-0.07193233072757721 0.00867513008415699 0.02009955607354641
-0.07430705428123474 -0.025927837938070297 0.0640023797750473
0.044336073100566864 -0.09152096509933472 0.024556227028369904
-0.07353298366069794 -0.0017423108220100403 0.048336461186409
-0.07132412493228912 0.008912420831620693 0.019052451476454735
-0.09231963753700256 -0.03225899487733841 -0.06472931802272797
0.08230762183666229 -0.05476591736078262 -0.024064335972070694
-0.055816054344177246 -0.09212538599967957 -0.278450608253479
0.014345932751893997 -0.04097368195652962 0.13801561295986176
-0.10193823277950287 0.009672868996858597 -0.1668069213628769
0.061821870505809784 -0.054475873708724976 -0.030803924426436424
-0.08717019855976105 -0.05832108110189438 0.05487233027815819
0.051517780870199203 -0.059763066470623016 0.039657752960920334
-0.07220129668712616 0.0074988785199820995 0.019032616168260574
-0.07964713126420975 0.06383030861616135 -0.3316924571990967
-0.06435956060886383 0.05069391056895256 -0.16439129412174225
0.05471836403012276 -0.05926031991839409 -0.018190011382102966
-0.05378810688853264 0.060011573135852814 -0.16865086555480957
0.048675764352083206 -0.06783115118741989 0.009019761346280575
-0.07416628301143646 -0.009779533371329308 0.05067182332277298
-0.07731005549430847 -0.0024636778980493546 0.04772244393825531
-0.04370623081922531 0.006782844662666321 0.08516258001327515
-0.03009037673473358 0.00349324569106102 0.13980695605278015
-0.08511118590831757 -0.027582408860325813 -0.01401957031339407
0.08788104355335236 -0.05165930092334747 -0.05503539741039276
-0.09117719531059265 -0.03874502331018448 0.013393118046224117
0.08275194466114044 -0.05502789840102196 -0.022975727915763855
0.04226100444793701 -0.09784390032291412 -0.07252401113510132
0.052119676023721695 -0.1045636534690857 -0.04791797325015068
-0.09721535444259644 -0.050009213387966156 -0.06450940668582916
-0.08407364785671234 -0.028566930443048477 0.0034578945487737656
0.014756269752979279 -0.09300659596920013 0.008259335532784462
-0.05554281547665596 0.004756513983011246 0.06789953261613846
-0.07305074483156204 -0.014137919060885906 -0.0007430585101246834
-0.04225743189454079 0.008367184549570084 0.08265433460474014
-0.07215020805597305 0.007673460990190506 0.01928938552737236
-0.1071212887763977 -0.031847044825553894 -0.1397973597049713
-0.08971814811229706 -0.031029101461172104 0.0005616862326860428
0.042379312217235565 -0.09587370604276657 -0.07691492885351181
0.05529456213116646 -0.05731470510363579 -0.018649036064743996
-0.08235916495323181 -0.015854574739933014 -0.03059006668627262
0.08147994428873062 -0.054575614631175995 -0.023602735251188278
-0.07695843279361725 -0.09390190243721008 -0.147298663854599
0.04816333204507828 -0.06838804483413696 0.011816302314400673
-0.11320315301418304 0.019140291959047318 -0.23341143131256104
-0.08235058188438416 -0.013596270233392715 -0.030867574736475945
-0.08833049237728119 -0.024076417088508606 -0.05172041803598404
-0.025972917675971985 -0.04690510779619217 0.2786470055580139
-0.09191583096981049 -0.030536813661456108 -0.06462781131267548
-0.061638716608285904 -0.0820014625787735 -0.263142466545105
0.0665137842297554 -0.053015515208244324 0.024846812710165977
-0.07825120538473129 -0.017078682780265808 -0.019288908690214157
0.0676175057888031 -0.052641041576862335 0.023144397884607315
-0.08251185715198517 -0.06345101445913315 -0.2707509696483612
-0.12171576917171478 0.003561854362487793 -0.2413243055343628
-0.03182877600193024 0.00797736644744873 0.14075876772403717
-0.07208290696144104 -0.012578391470015049 0.0015778087545186281
-0.03996923938393593 -0.1248566061258316 -0.28590354323387146
0.018810909241437912 -0.1417556256055832 -0.26165837049484253
-0.0919547826051712 -0.07044433802366257 -0.056637927889823914
-0.08942143619060516 -0.026915952563285828 -0.05277698114514351
0.04751663655042648 -0.09886222332715988 -0.13899661600589752
-0.08084364980459213 -0.0992177277803421 -0.023870475590229034
0.08291661739349365 -0.053864747285842896 -0.024367714300751686
0.016082342714071274 -0.08884014934301376 0.035514816641807556
-0.07267475873231888 -0.011355491355061531 0.05773356184363365
0.08167915046215057 -0.054764240980148315 -0.023558203130960464
-0.06948085874319077 0.023002903908491135 -0.0009167399257421494
0.03164795786142349 -0.08844389021396637 0.0056443531066179276
-0.028800230473279953 -0.12041322141885757 -0.10113513469696045
-0.07215103507041931 -0.016667939722537994 0.0006926907226443291
-0.041104260832071304 0.008266352117061615 0.081311896443367
-0.0283593088388443 -0.03968208283185959 0.27814897894859314
-0.08308175206184387 -0.03622332215309143 -0.019059421494603157
0.04884421452879906 -0.05840802937746048 -0.005595422349870205
0.08519989252090454 -0.06426384299993515 -0.37472856044769287
0.04990461841225624 -0.0896039679646492 -0.0440032072365284
0.05346643552184105 -0.09011250734329224 -0.04517502337694168
-0.029250644147396088 -0.06543891876935959 0.20511764287948608
0.10280635952949524 -0.04117544740438461 -0.10865957289934158
0.04961441829800606 -0.05828116834163666 -0.005624068435281515
0.06770361959934235 -0.10905493050813675 -0.1873990148305893
0.04705564305186272 -0.0687984824180603 0.011237326078116894
-0.07361897826194763 -0.015512276440858841 -0.000522376038134098
-0.033116377890110016 -0.12389113008975983 -0.0586991161108017
-0.024750204756855965 -0.0393679141998291 0.3284534811973572
0.01410431507974863 -0.09279882907867432 0.008536163717508316
-0.08366931974887848 -0.035954009741544724 -0.019550969824194908
0.12000146508216858 -0.038715705275535583 -0.36528027057647705
0.08309904485940933 -0.05374693125486374 -0.023572107776999474
-0.09832340478897095 -0.04817083105444908 -0.06626627594232559
0.01650814339518547 -0.11562834680080414 -0.3849048614501953
0.0749257355928421 -0.08532851189374924 -0.08270833641290665
-0.024078741669654846 -0.024608183652162552 0.3664654493331909
-0.08927080035209656 -0.05318751186132431 0.019954394549131393
-0.08917401731014252 -0.031208738684654236 -0.0011905990540981293
0.011245405301451683 -0.13064229488372803 -0.33934521675109863
0.05033311992883682 -0.06765970587730408 0.009250049479305744
0.04886426776647568 -0.06894110888242722 0.009677852503955364
-0.08478167653083801 -0.024158641695976257 -0.014401905238628387
0.04995283856987953 -0.0671013593673706 0.010236275382339954
-0.08369932323694229 -0.03494657576084137 -0.018884949386119843
0.057049237191677094 -0.07211339473724365 -0.027181964367628098
0.0007487237453460693 -0.05838480591773987 0.2264600396156311
0.04757000505924225 -0.06677403301000595 0.008183174766600132
-0.07211916893720627 -0.02662826143205166 0.04244768247008324
-0.0015080943703651428 -0.027274813503026962 0.27883246541023254
0.05137694254517555 -0.08433425426483154 0.04599357768893242
-0.0715847760438919 -0.12068144977092743 -0.03709092736244202
-0.0780109241604805 -0.0172131285071373 -0.01946869120001793
0.04545220732688904 -0.06856486201286316 0.007372822612524033
-0.08974947035312653 -0.023801906034350395 -0.0523776039481163
0.057126905769109726 -0.07216586172580719 -0.028463605791330338
-0.09391522407531738 -0.03049274906516075 -0.00335732102394104
0.015427859500050545 -0.08853714168071747 0.040123604238033295
-0.06871196627616882 0.04367323964834213 -0.25226378440856934
0.034231457859277725 -0.11995931714773178 -0.17589080333709717
-0.07135599106550217 0.006842134520411491 0.020754892379045486
0.042351119220256805 -0.1348736584186554 -0.26746442914009094
-0.09359069168567657 0.045002032071352005 -0.3114319443702698
0.12172040343284607 -0.05419902503490448 -0.3888140320777893
-0.0832768976688385 -0.03074594773352146 0.004068249370902777
-0.08939804136753082 -0.030722366645932198 -0.0002528834156692028
-0.024522749707102776 -0.02521815337240696 0.36534103751182556
-0.04267960041761398 0.007594071328639984 0.08519106358289719
0.026932455599308014 -0.11245907843112946 -0.20423078536987305
-0.04202023893594742 0.00825416762381792 0.08101637661457062
-0.07855219393968582 -0.017440281808376312 -0.01833123341202736
-0.09754623472690582 0.03361699357628822 -0.2212282419204712
-0.07371195405721664 -0.01521620899438858 -0.0011707991361618042
-0.07261034101247787 0.04182059317827225 -0.17616507411003113
-0.09858362376689911 -0.0469009093940258 -0.09361976385116577
0.046661410480737686 -0.0657966136932373 0.007895957678556442
0.05969952791929245 -0.05664382129907608 -0.029727602377533913
-0.10945285856723785 0.014515640214085579 -0.25371623039245605
0.05661846697330475 -0.059745386242866516 -0.017318252474069595
-0.08659675717353821 -0.04665910825133324 -0.30045658349990845
0.05184388905763626 -0.05849374085664749 -0.006530042737722397
-0.055955298244953156 0.006411217153072357 0.0692872405052185
0.05159005522727966 -0.05699973553419113 -0.00434822728857398
-0.10353229194879532 -0.04628293961286545 -0.06321774423122406
-0.08295116573572159 -0.01489292737096548 -0.03164277225732803
-0.08510411530733109 -0.0367947556078434 0.04330820217728615
-0.10439550876617432 0.0035984814167022705 -0.16059651970863342
-0.08463294804096222 -0.030521368607878685 0.0030340813100337982
0.08259224891662598 -0.05404699966311455 -0.023666340857744217
-0.07218387722969055 0.006541428156197071 0.019115475937724113
0.013560325838625431 -0.1333715319633484 -0.10317700356245041
-0.03818958252668381 -0.13897043466567993 -0.16436134278774261
0.0477401539683342 -0.036050356924533844 0.10879198461771011
-0.06122758984565735 0.007274772971868515 0.07840966433286667
-0.07150961458683014 0.007666585501283407 0.021434225142002106
-0.10801669210195541 -0.014306241646409035 -0.14617307484149933
0.05323070287704468 -0.10555946826934814 -0.15651863813400269
-0.08923834562301636 -0.02444547787308693 -0.052174780517816544
-0.0634123906493187 0.027947084978222847 -0.011443388648331165
0.08215063810348511 -0.055580440908670425 -0.022912025451660156
-0.08945047855377197 -0.023759055882692337 -0.05262931436300278
-0.01000281423330307 -0.03137817233800888 0.26057612895965576
-0.09039866924285889 -0.0778888463973999 -0.05286607891321182
-0.05249109864234924 0.05021750181913376 -0.06525808572769165
-0.09708114713430405 -0.04924579709768295 -0.06557370722293854
-0.10839413851499557 -0.012049599550664425 -0.14412018656730652
-0.09041190147399902 -0.07135108858346939 -0.057492829859256744
0.04847291484475136 -0.08861346542835236 0.023305898532271385
0.08826708793640137 -0.0528978630900383 -0.05499690771102905
0.0815412774682045 -0.05458993464708328 -0.023096026852726936
0.09696464985609055 -0.07820302248001099 -0.14949184656143188
0.08016377687454224 -0.03943045809864998 -0.3844493329524994
-0.07222709059715271 0.008321689441800117 0.02033041976392269
-0.08325456082820892 -0.03561294823884964 -0.018101902678608894
-0.09168930351734161 -0.04029885679483414 0.010311909019947052
0.06548745185136795 -0.05302216857671738 0.023269247263669968
-0.03319965675473213 -0.1288536936044693 -0.213151216506958
-0.03702465817332268 -0.12368541210889816 -0.141892671585083
-0.07864274829626083 -0.013740409165620804 -0.017467472702264786
0.05161986127495766 -0.05816267430782318 -0.00514284148812294
0.0324137806892395 -0.08841774612665176 0.004364446736872196
-0.08850271254777908 -0.07019942253828049 -0.14424172043800354
-0.07267891615629196 -0.013811382465064526 0.0003104940988123417
0.13093429803848267 -0.06751006841659546 -0.23778869211673737
0.10645733773708344 -0.039446741342544556 -0.1806950569152832
-0.10736241936683655 -0.06844396889209747 -0.11834286153316498
-0.058467745780944824 0.0009396150708198547 0.07714363187551498
-0.03611358627676964 -0.11843763291835785 -0.35793375968933105
-0.07191577553749084 -0.013238808140158653 -0.00020922720432281494
0.038533370941877365 -0.10682111978530884 -0.08203691244125366
-0.10042060911655426 -0.056119516491889954 -0.05670178309082985
0.08194012194871902 -0.0539977066218853 -0.023362627252936363
-0.08157368004322052 0.020270396023988724 -0.08025415241718292
-0.10282649099826813 0.027241414412856102 -0.2746606469154358
-0.015269944444298744 -0.034005776047706604 0.27217280864715576
-0.08760222047567368 -0.024906449019908905 -0.394000768661499
-0.04808934032917023 0.011051260866224766 0.0828646644949913
-0.07026075571775436 -0.11623441427946091 -0.00789996050298214
0.019229721277952194 -0.04501744359731674 -0.2992646098136902
0.026281462982296944 -0.10772421956062317 -0.059954382479190826
0.04288309067487717 -0.09652280807495117 -0.07290098816156387
-0.040139090269804 -0.1232958436012268 -0.09343326091766357
-0.0722031444311142 0.0077941385097801685 0.02021583542227745
0.05890588462352753 -0.055805619806051254 -0.029485277831554413
0.04272567480802536 -0.09900820255279541 -0.07443884015083313
-0.09060119092464447 -0.00362930865958333 -0.1105620339512825
-0.11782234907150269 -0.027069590985774994 -0.1865961104631424
0.05811694264411926 -0.07261720299720764 -0.027137503027915955
0.0826239287853241 -0.05530555546283722 -0.023177921772003174
0.046517182141542435 -0.06610617786645889 0.0076587628573179245
-0.10593171417713165 -0.01709582656621933 -0.31116700172424316
-0.08779191970825195 0.03656131029129028 -0.3496604859828949
-0.008310602977871895 -0.12548474967479706 -0.18772593140602112
0.0465138703584671 -0.03704652190208435 0.10759619623422623
-0.07962294667959213 -0.015205834060907364 -0.020348582416772842
-0.07286221534013748 -0.014438604936003685 0.0008580219000577927
-0.0854504257440567 0.021518997848033905 -0.09895174205303192
0.0829959511756897 -0.05489354953169823 -0.02412944659590721
0.05084693431854248 -0.06818005442619324 0.008557707071304321
0.009149551391601562 -0.03589736670255661 0.1536487340927124
-0.05971971154212952 0.005021765362471342 0.07912693172693253
-0.07309167087078094 -0.012580097652971745 0.0011210869997739792
-0.09037603437900543 -0.0225134938955307 -0.0527377724647522
-0.07007382810115814 -0.022497475147247314 0.0390915609896183
-0.030183866620063782 0.002997465431690216 0.13898704946041107
-0.08565791696310043 -0.025621995329856873 -0.029431797564029694
0.0586373433470726 -0.05508475378155708 -0.030345747247338295
-0.07081995159387589 -0.02624073252081871 0.039460428059101105
-0.021801309660077095 -0.03573179990053177 0.41621124744415283
-0.07635360211133957 0.01650555431842804 -0.1190849095582962
-0.07809554040431976 -0.01776265725493431 -0.018384002149105072
-0.08376678824424744 -0.06769292801618576 0.06940129399299622
-0.00945066288113594 -0.05282377451658249 0.3349558115005493
-0.0935787558555603 -0.029597735032439232 -0.06451032310724258
-0.08531667292118073 -0.02846791036427021 0.005584143102169037
-0.04267052561044693 0.006215989589691162 0.08505174517631531
0.0067252120934426785 -0.08886849135160446 0.016151688992977142
-0.027530338615179062 -0.11867915093898773 -0.11925622820854187
-0.0035428497940301895 -0.02722301334142685 0.23091837763786316
-0.011648818850517273 -0.054050471633672714 0.36789000034332275
-0.030556179583072662 0.007308888249099255 0.14098116755485535
-0.0756315141916275 -0.02748998999595642 0.06159722059965134
-0.013931007124483585 -0.09808766096830368 0.018421057611703873
-0.0720171183347702 -0.014628543518483639 0.0007368344813585281
-0.09637398272752762 -0.054481737315654755 -0.002142157405614853
-0.08440288156270981 -0.08099779486656189 -0.19120445847511292
0.08230208605527878 -0.05414963513612747 -0.023099256679415703
0.08235174417495728 -0.055061303079128265 -0.023643892258405685
0.08276063203811646 -0.05522684007883072 -0.024773869663476944
-0.0834050178527832 -0.01381504163146019 -0.030960263684391975
0.07555963099002838 -0.09150230884552002 -0.10579533874988556
0.056579314172267914 -0.058382268995046616 -0.02067900262773037
0.06388512253761292 -0.05890873819589615 -0.0374445840716362
0.031472332775592804 -0.08851408958435059 0.004493439570069313
0.07372472435235977 -0.05455537512898445 0.020197266712784767
0.07201719284057617 -0.05254513770341873 0.01858372613787651
0.09508410096168518 -0.05345526337623596 -0.08315502852201462
0.08738404512405396 -0.052835673093795776 -0.05394339933991432
-0.07153256237506866 0.008077213540673256 0.018076220527291298
-0.06941629946231842 0.02195383422076702 0.00042225606739521027
-0.09163706749677658 -0.06994841247797012 -0.05761191248893738
0.12010226398706436 -0.08182187378406525 -0.20242956280708313
-0.04169350117444992 0.009438246488571167 0.08282620459794998
0.07619402557611465 -0.05048152059316635 0.0021581165492534637
0.07200663536787033 -0.08022291958332062 -0.13181394338607788
-0.055390119552612305 0.0441199354827404 -0.05292130634188652
0.08256833255290985 -0.05252380296587944 -0.023844871670007706
0.04907776415348053 -0.06735718250274658 0.011143617331981659
0.08358417451381683 -0.05407272279262543 -0.02364528924226761
-0.09923041611909866 -0.04472636431455612 -0.09361821413040161
0.09716109186410904 -0.08503086119890213 -0.37061554193496704
-0.06843901425600052 -0.022713426500558853 0.035298097878694534
-0.09018285572528839 -0.023114144802093506 -0.052490584552288055
-0.10449281334877014 -0.045724302530288696 -0.060876864939928055
-0.07196040451526642 -0.012383194640278816 -0.0011452846229076385
0.044986993074417114 -0.07069508731365204 0.018530771136283875
0.0018249358981847763 -0.06319725513458252 0.20618455111980438
0.0601806640625 -0.05767715722322464 -0.038129277527332306
-0.01779986172914505 -0.042760785669088364 0.24589212238788605
-0.06675466895103455 0.041239578276872635 -0.08746257424354553
0.07122726738452911 -0.08972835540771484 -0.09132460504770279
0.05594760924577713 -0.058890316635370255 -0.019216371700167656
-0.07358573377132416 -0.06463965773582458 -0.36443546414375305
0.0486864298582077 -0.06958383321762085 0.009194307029247284
0.08303510397672653 -0.05405794829130173 -0.024286948144435883
-0.07371589541435242 0.0065564848482608795 0.019723230972886086
-0.07461056113243103 0.03748252987861633 -0.23843975365161896
-0.0452251099050045 -0.09378836303949356 0.08088423311710358
0.031549058854579926 -0.08918324112892151 0.005583492107689381
-0.07552093267440796 -0.011013925075531006 0.06037003546953201
-0.09289237856864929 -0.029727499932050705 -0.06457823514938354
0.07775869965553284 -0.0890187919139862 -0.11005385965108871
-0.0633227527141571 0.026621375232934952 -0.01082077156752348
-0.05273892357945442 -0.08548997342586517 0.11742718517780304
0.007010008208453655 -0.08832854777574539 0.019784405827522278
-0.07169687747955322 0.00941924937069416 0.019144076853990555
-0.08558094501495361 -0.08384813368320465 -0.20780277252197266
-0.03328048437833786 -0.12777842581272125 -0.09721746295690536
-0.11885082721710205 -0.002369944006204605 -0.18422453105449677
0.0347793847322464 -0.11327050626277924 -0.09252983331680298
-0.07056573033332825 0.007856298238039017 0.016661815345287323
-0.01073318812996149 -0.13406407833099365 -0.23057520389556885
-0.05908574163913727 -0.11471282690763474 -0.23021389544010162
0.014261312782764435 -0.04418571665883064 0.18775570392608643
-0.08425472676753998 -0.029630934819579124 0.0014183446764945984
-0.10735826194286346 0.013552452437579632 -0.29393771290779114
0.03703329712152481 -0.0906899943947792 0.03222415968775749
-0.07295198738574982 -0.014838255010545254 0.00020274240523576736
-0.03161964938044548 0.008825954049825668 0.13925480842590332
0.031729016453027725 -0.0882733091711998 0.005429789889603853
-0.08393079042434692 -0.03419586643576622 -0.019499128684401512
-0.013064447790384293 -0.046919554471969604 0.24715577065944672
-0.06862430274486542 0.040916863828897476 -0.10792968422174454
0.07700558751821518 -0.04874081909656525 0.005535983480513096
-0.025025218725204468 -0.03660087287425995 0.25897154211997986
-0.029567644000053406 0.0046967752277851105 0.13832588493824005
0.047284338623285294 -0.08732077479362488 0.019932620227336884
0.08261743187904358 -0.054769787937402725 -0.023556245490908623
-0.016521740704774857 -0.12826117873191833 -0.06748128682374954
-0.08601701259613037 -0.08219808340072632 0.014193451032042503
-0.07258225977420807 -0.026246096938848495 0.04182542487978935
-0.025739673525094986 -0.061973605304956436 0.4111735224723816
0.006291639059782028 -0.042070645838975906 0.26341718435287476
-0.09530792385339737 -0.07769502699375153 -0.13561180233955383
-0.07278048247098923 -0.015827639028429985 -0.000142599456012249
0.06528276950120926 -0.05413980409502983 0.022141296416521072
-0.09326616674661636 -0.03016430325806141 -0.06430020928382874
0.0006188873667269945 -0.11597654968500137 -0.048948269337415695
-0.0419543981552124 0.008744445629417896 0.08247555792331696
-0.07228720188140869 0.0073440661653876305 0.02096954919397831
-0.07258564978837967 -0.014811062254011631 0.0007860480109229684
0.04845055937767029 -0.09068988263607025 -0.0628461092710495
-0.08210697770118713 -0.01657325029373169 -0.028285952284932137
-0.04081392288208008 0.007859030738472939 0.0818825289607048
-0.08184119313955307 -0.06907355785369873 -0.17160183191299438
-0.089424267411232 -0.031214646995067596 -0.001186084235087037
-0.013485711067914963 -0.03106047585606575 0.25989943742752075
-0.047070324420928955 -0.10200777649879456 0.06937627494335175
0.038205258548259735 -0.12882065773010254 -0.29477769136428833
0.026561271399259567 -0.10094216465950012 -0.014283999800682068
-0.0733591690659523 0.00673874095082283 0.020082987844944
0.055714964866638184 -0.07165978848934174 -0.026872316375374794
-0.08440566062927246 -0.03589431196451187 -0.020890001207590103
-0.07271739840507507 -0.012825211510062218 0.0003707101568579674
-0.10749709606170654 -0.03357603773474693 -0.13369983434677124
-0.08716016262769699 -0.034325700253248215 -0.004356361925601959
-0.06924129277467728 -0.022508962079882622 0.03633270412683487
-0.1052560806274414 -0.02669188380241394 -0.11507373303174973
0.054925382137298584 -0.059617094695568085 -0.018350867554545403
-0.08950209617614746 -0.024598730728030205 -0.054008252918720245
-0.07289990037679672 -0.02461198717355728 0.04315102845430374
-0.08045988529920578 -0.014841053634881973 -0.03008314222097397
-0.07233868539333344 0.007773708086460829 0.020093239843845367
0.08238867670297623 -0.05533043295145035 -0.023763762786984444
-0.07164759188890457 0.007889547385275364 0.021905774250626564
-0.08914805203676224 -0.02365805394947529 -0.05372662842273712
0.05453706905245781 -0.10301554203033447 -0.049651242792606354
-0.059759147465229034 0.0028383340686559677 0.07937698811292648
0.040303125977516174 -0.08985213935375214 0.03527883440256119
0.0767640620470047 -0.053943902254104614 0.001517219003289938
-0.09849683940410614 -0.054565612226724625 -0.15804195404052734
0.05594659969210625 -0.05822063609957695 -0.018579401075839996
-0.08870978653430939 -0.03384854644536972 -0.004132140427827835
-0.030016960576176643 0.00428355485200882 0.14045009016990662
0.08722275495529175 -0.05244618281722069 -0.055146776139736176
-0.07350466400384903 -0.011636162176728249 0.057611189782619476
-0.08864452689886093 -0.07076434791088104 0.02617291361093521
0.08291132748126984 -0.054030194878578186 -0.022595033049583435
0.08718204498291016 -0.05307754501700401 -0.05407503992319107
0.09629218280315399 -0.050424620509147644 -0.04761935770511627
-0.07290945947170258 0.005479883402585983 0.019199417904019356
-0.07179055362939835 -0.01431490108370781 0.0006141094490885735
-0.10674217343330383 -0.04278155416250229 -0.16908255219459534
0.0870990976691246 -0.05220269411802292 -0.05487199127674103
0.06666859239339828 -0.0523432195186615 0.02436245232820511
-0.0013575423508882523 -0.1174946129322052 -0.12709930539131165
0.06457112729549408 -0.05306999012827873 0.024210631847381592
-0.05693104490637779 0.06413979828357697 -0.1563771367073059
0.050485290586948395 -0.06117788702249527 0.04031192511320114
0.0827767550945282 -0.05471675843000412 -0.023727238178253174
-0.07947787642478943 0.02798447757959366 -0.11375142633914948
0.018162637948989868 -0.03311572223901749 0.18875057995319366
-0.0724799707531929 0.008098145946860313 0.019373444840312004
-0.07276556640863419 -0.015195958316326141 -0.002200726419687271
0.04928206652402878 -0.06883689761161804 0.010500459000468254
-0.00983717106282711 -0.13240814208984375 -0.09427069872617722
-0.0740615576505661 -0.10120098292827606 0.03639213740825653
-0.10151564329862595 0.012468751519918442 -0.17156320810317993
-0.07765158265829086 -0.01583360694348812 -0.016434263437986374
-0.0914502888917923 -0.06182493269443512 -0.1687750518321991
-0.0960005521774292 -0.04403407871723175 -0.08120614290237427
-0.09303461015224457 -0.06912103295326233 -0.008561012335121632
-0.0788913443684578 -0.015586674213409424 -0.019200030714273453
-0.0042152381502091885 -0.09253279864788055 0.023362647742033005
0.07056371867656708 -0.05454692244529724 -0.0364847369492054
0.10781442373991013 -0.03179967403411865 -0.30773356556892395
-0.04274115338921547 0.00775604322552681 0.08669891208410263
-0.08406471461057663 -0.031589288264513016 0.0023448318243026733
0.05111764371395111 -0.05830699950456619 0.051293231546878815
-0.0704764649271965 -0.020636985078454018 0.06380066275596619
-0.0553278885781765 0.00706067681312561 0.07053093612194061
-0.057508278638124466 0.05300591140985489 -0.12888148427009583
-0.07250403612852097 -0.013688808307051659 0.0014692656695842743
0.04600397124886513 -0.03832698240876198 0.1078319177031517
0.04848628491163254 -0.06312191486358643 0.04905746132135391
0.08369648456573486 -0.05369608849287033 -0.02390659973025322
0.06246386468410492 -0.05870787799358368 -0.0371098630130291
-0.09764067083597183 -0.04465046525001526 -0.07846933603286743
-0.05201340094208717 0.04402325674891472 -0.04395870119333267
0.018199695274233818 -0.043840549886226654 -0.29907089471817017
0.0454312339425087 -0.10268527269363403 -0.037708934396505356
0.08467961847782135 -0.10729805380105972 -0.24747112393379211
-0.031187545508146286 0.07565583288669586 -0.36572325229644775
0.03194674849510193 -0.08797742426395416 0.07036984711885452
-0.01664690673351288 -0.0407734140753746 0.2447892725467682
-0.08415290713310242 -0.024916261434555054 -0.013717517256736755
-0.04197023808956146 0.00802375003695488 0.08587925881147385
0.05838971585035324 -0.07132299989461899 -0.027800071984529495
0.058411117643117905 -0.05499394237995148 -0.027715379372239113
-0.08532711863517761 -0.027573250234127045 -0.015491236001253128
0.04862399026751518 -0.10048466920852661 -0.035485319793224335
-0.07332835346460342 -0.012710828334093094 -0.0003685802221298218
-0.1209007054567337 -0.016640320420265198 -0.23790894448757172
-0.053147777915000916 0.05143751949071884 -0.06624992936849594
-0.08563637733459473 -0.03895029053092003 0.046466149389743805
-0.08497104048728943 -0.030017146840691566 0.003064945340156555
-0.08427481353282928 -0.02891669236123562 0.005368301644921303
-0.038129642605781555 0.00028071366250514984 -0.35792645812034607
-0.042548660188913345 0.010511199943721294 0.08627454191446304
-0.06127596274018288 0.07979877293109894 -0.25623050332069397
0.06665115058422089 -0.05423605814576149 0.022209404036402702
-0.09859738498926163 -0.044367723166942596 -0.09582376480102539
-0.07495381683111191 -0.11224827170372009 -0.10865234583616257
-0.1153935045003891 -0.03501710295677185 -0.23750333487987518
-0.08837989717721939 -0.007107250392436981 -0.3513178825378418
-0.04283493012189865 0.007066652178764343 0.08457805961370468
0.04913145303726196 -0.09065742790699005 -0.061764419078826904
-0.03064512275159359 0.003256961703300476 0.14054036140441895
-0.08124665915966034 0.0397704541683197 -0.18818402290344238
-0.018717439845204353 -0.04244188964366913 0.25255391001701355
-0.06473640352487564 0.026632284745573997 -0.010981579311192036
-0.07141046971082687 0.007759919855743647 0.021940020844340324
-0.09727929532527924 -0.07871291786432266 -0.12003368139266968
-0.08592024445533752 -0.023618360981345177 -0.015552375465631485
0.01656077615916729 -0.03672962635755539 0.14741072058677673
-0.0717768669128418 0.009538499638438225 0.01904001273214817
-0.09253226220607758 -0.032550811767578125 -0.06449281424283981
-0.04377423971891403 0.007934339344501495 0.08498800545930862
0.08307571709156036 -0.0543966218829155 -0.02303612045943737
0.053748276084661484 -0.10387270152568817 -0.09860123693943024
-0.07149206101894379 0.00722755491733551 0.020977750420570374
-0.08019339293241501 -0.01754463091492653 -0.018401553854346275
-0.10358656942844391 -0.04922843351960182 -0.10651277005672455
-0.02601008489727974 -0.04371535778045654 0.3556021749973297
0.051856476813554764 -0.09000788629055023 -0.043278902769088745
-0.008611664175987244 -0.06123168766498566 0.21455039083957672
-0.08951324224472046 -0.029783163219690323 -0.00053376704454422
-0.0844322144985199 -0.025795763358473778 -0.014505108818411827
-0.09311392903327942 -0.08841308951377869 -0.14437580108642578
0.07033053040504456 -0.11826109886169434 -0.32469385862350464
0.07395493984222412 -0.05109512060880661 0.021794430911540985
0.005628604907542467 -0.12252894043922424 -0.0755690485239029
-0.08276133239269257 -0.03528209030628204 -0.019514720886945724
0.07139135897159576 -0.05362436920404434 -0.03672908991575241
0.08291300386190414 -0.05441455543041229 -0.023462198674678802
-0.08951492607593536 -0.03229980915784836 1.874566078186035e-05
-0.08649450540542603 -0.02441302314400673 -0.012971438467502594
-0.07114216685295105 -0.021908007562160492 0.06368149816989899
-0.08887429535388947 -0.06610740721225739 -0.05972430109977722
-0.07857174426317215 -0.01670372299849987 -0.017263000831007957
0.050311651080846786 -0.058015353977680206 -0.005814593285322189
-0.023691587150096893 -0.06120314076542854 0.18410170078277588
-0.06031551957130432 0.004275696352124214 0.08223225176334381
-0.08502639085054398 -0.035066019743680954 0.0413750484585762
0.058983154594898224 -0.055394239723682404 -0.029311450198292732
-0.07736320793628693 0.01322873868048191 -0.04826604574918747
-0.09055463969707489 -0.024143846705555916 -0.05561713129281998
-0.017822841182351112 -0.053351305425167084 0.24351981282234192
-0.0034527534153312445 -0.14012527465820312 -0.291848748922348
-0.0791398286819458 -0.014556990005075932 -0.017769411206245422
0.0814228281378746 -0.05389674752950668 -0.023802263662219048
0.046605393290519714 -0.0660475492477417 0.0073583791963756084
-0.0486578643321991 -0.1302083432674408 -0.20315001904964447
-0.07293356955051422 -0.016308553516864777 0.052631862461566925
0.07066134363412857 -0.054240476340055466 -0.036441754549741745
-0.07318509370088577 -0.07960689067840576 -0.3332460820674896
-0.037302009761333466 -0.0452038049697876 0.3660838305950165
0.051139164716005325 -0.05844656005501747 -0.005007678177207708
0.015116839669644833 -0.0892140120267868 0.04034129157662392
0.04605874419212341 -0.0653744488954544 0.009920529089868069
0.05476740747690201 -0.05940951779484749 -0.020373202860355377
0.04949907585978508 -0.06984628736972809 0.009626442566514015
0.07613984495401382 -0.051945436745882034 0.019654270261526108
0.10184238106012344 -0.04162600636482239 -0.14276307821273804
-0.007657252252101898 -0.045800209045410156 0.3227291703224182
-0.10256907343864441 -0.05024072527885437 -0.10598484426736832
0.06559866666793823 -0.05483666807413101 0.02292998507618904
0.01504568662494421 -0.0926392674446106 0.009902730584144592
-0.07517533749341965 -0.014183707535266876 0.05626071244478226
-0.07205600291490555 0.007179563865065575 0.017540574073791504
-0.07165109366178513 -0.014243370853364468 0.0009864727035164833
-0.07193134725093842 0.006155025213956833 0.019712278619408607
-0.07212495803833008 0.005970020778477192 0.018738843500614166
0.04544583708047867 -0.06519687175750732 0.008080151863396168
-0.07050913572311401 -0.020513035356998444 0.06215142458677292
0.0518098883330822 -0.0589771494269371 -0.006052696146070957
-0.09226427227258682 -0.03775176778435707 0.014476578682661057
-0.021796295419335365 -0.04039638862013817 0.24588586390018463
0.0014238394796848297 -0.12466742843389511 -0.19500982761383057
0.09639356285333633 -0.0519409105181694 -0.05020013451576233
-0.09848301857709885 -0.058196913450956345 -0.1002926453948021
0.04797862470149994 -0.06295396387577057 0.047113530337810516
0.09978008270263672 -0.05299331992864609 -0.08414509147405624
0.07503913342952728 -0.10423030704259872 -0.3509023189544678
-0.0733770951628685 -0.01293974369764328 0.05936737358570099
-0.054586634039878845 0.005707547068595886 0.0677141547203064
0.05066428333520889 -0.05810750648379326 -0.005218368023633957
0.03523441031575203 -0.09088816493749619 0.03167667239904404
-0.04307438060641289 0.0066956691443920135 0.08419997990131378
-0.08593732118606567 -0.02416982315480709 -0.01564549095928669
-0.0043137529864907265 -0.04945167899131775 0.2598893642425537
-0.0846807211637497 -0.05376400798559189 0.039390962570905685
-0.08251170814037323 -0.03180244192481041 0.004792302381247282
0.08246907591819763 -0.053265172988176346 -0.022789241746068
0.08238077163696289 -0.0556001253426075 -0.02326084114611149
0.08259409666061401 -0.05491743981838226 -0.0239355880767107
-0.09078045934438705 -0.07063111662864685 -0.057133350521326065
-0.05326724797487259 -0.10408757627010345 -0.24836573004722595
0.0692625492811203 -0.05578574910759926 -0.030516212806105614
0.07136331498622894 -0.05253084748983383 0.022206885740160942
-0.042802195996046066 0.006680317223072052 0.08440021425485611
-0.0013947708066552877 -0.052509766072034836 0.19667932391166687
-0.07140224426984787 0.008110707625746727 0.02045103907585144
-0.11345076560974121 -0.019655568525195122 -0.16735632717609406
0.08790868520736694 -0.07506113499403 -0.11637158691883087
0.046085424721241 -0.0669211745262146 0.007274067495018244
-0.07974989712238312 -0.013449075631797314 -0.0304555706679821
-0.08830699324607849 -0.024660946801304817 -0.052736714482307434
