0.06305666267871857 -0.09759659320116043 0.17048458755016327
0.11908634006977081 -0.06980433315038681 0.020140666514635086
-0.11867281794548035 0.09579432010650635 -0.04562964662909508
-0.0952027440071106 -0.04766213893890381 0.017676768824458122
-0.08119826018810272 0.11053188145160675 0.14649039506912231
-0.11765711009502411 -0.02251891978085041 -0.05989794805645943
0.024043820798397064 -0.103863924741745 0.19060154259204865
-0.021747617051005363 -0.08824135363101959 0.011718474328517914
0.03971186652779579 -0.115054190158844 -0.061697348952293396
-0.05374835431575775 0.08846674859523773 -0.2761119604110718
-0.018839504569768906 -0.0996333658695221 -0.09787586331367493
0.061173051595687866 -0.0944189727306366 0.13197004795074463
-0.021145962178707123 -0.09822562336921692 0.13857239484786987
-0.08065423369407654 -0.06730606406927109 0.12263701111078262
-0.10550520569086075 -0.020856188610196114 0.06345662474632263
0.022606002166867256 -0.1008831337094307 0.04601389169692993
-0.06240178644657135 0.15289616584777832 -0.03412666171789169
0.0228026881814003 -0.03390970081090927 -0.3918484151363373
-0.08605407923460007 -0.021838076412677765 -0.12312068045139313
0.03385591134428978 0.07785241305828094 -0.3964574337005615
-0.07846653461456299 0.04955213889479637 -0.15407584607601166
-0.0972059965133667 0.08386841416358948 0.20713792741298676
-0.005152473226189613 -0.07137687504291534 -0.13470256328582764
-0.06227488070726395 0.11812897026538849 0.39649873971939087
0.12346337735652924 -0.06732438504695892 0.2977956533432007
-0.12024513632059097 0.006332044489681721 0.012012938968837261
-0.1109582930803299 -0.03160112351179123 0.3121320903301239
0.09763769060373306 -0.09081754088401794 -0.059936679899692535
0.025530025362968445 -0.10876013338565826 0.21654626727104187
0.0877017006278038 -0.10195138305425644 0.3257976174354553
0.07171769440174103 -0.029258187860250473 -0.2527552843093872
0.06852765381336212 -0.05175994709134102 -0.16162875294685364
-0.09591381251811981 0.08916676789522171 0.08796967566013336
-0.06284531205892563 -0.007026186212897301 -0.2381853461265564
0.11184444278478622 -0.06839421391487122 0.13150572776794434
-0.07835052162408829 -0.07218699157238007 -0.08749061822891235
-0.000588015653192997 -0.11467558890581131 -0.059098415076732635
0.04479272663593292 -0.04370947182178497 -0.3021845817565918
-0.0857081338763237 -0.050700802356004715 0.09845083951950073
-0.11670342832803726 -0.024632027372717857 -0.06260928511619568
-0.10480740666389465 -0.022017311304807663 0.06213623285293579
-0.03446599841117859 -0.03312186151742935 -0.3260756731033325
0.05746729299426079 -0.10758928954601288 -0.059738244861364365
0.11792551726102829 -0.05128561705350876 0.008220724761486053
-0.12389061599969864 0.09808354079723358 -0.04879728704690933
0.030791692435741425 -0.09652109444141388 -0.1249290332198143
-0.07129041850566864 0.11811631172895432 0.1675257831811905
0.04565897956490517 -0.09068065881729126 -0.013224884867668152
-0.10301144421100616 -0.025333087891340256 0.06347022950649261
-0.061897873878479004 0.12096132338047028 0.11659841239452362
0.02013428509235382 -0.048463571816682816 -0.2589164674282074
-0.1048707515001297 0.05684937536716461 0.37822580337524414
0.04135490208864212 -0.08944420516490936 0.008254699409008026
-0.08434128761291504 0.10535924881696701 0.17974962294101715
0.07940803468227386 -0.08500708639621735 0.08125042915344238
0.0732494443655014 -0.110203318297863 0.36942410469055176
0.018800947815179825 -0.10515441745519638 0.1626829206943512
0.10580232739448547 -0.011476218700408936 -0.15059009194374084
-0.04332162067294121 -0.02884083241224289 -0.28483715653419495
0.03875036910176277 -0.09373732656240463 0.005867666564881802
0.04201093688607216 -0.0889088362455368 0.007824834436178207
-0.04969969019293785 0.048256970942020416 -0.3757389187812805
0.10698366910219193 -0.07926048338413239 0.3102095127105713
-0.0987146645784378 -0.042899150401353836 0.21185393631458282
-0.09642364084720612 0.11987316608428955 -0.09562017023563385
0.08113166689872742 -0.08729357272386551 0.07597267627716064
0.11480671167373657 -0.06047092005610466 0.0886530876159668
-0.11732032150030136 0.06487727165222168 0.0003940444439649582
-0.06036287546157837 -0.020044907927513123 -0.14444822072982788
0.03924517333507538 -0.10105644166469574 0.042091455310583115
-0.01507179532200098 -0.08665630966424942 -0.12730246782302856
-0.10976085066795349 0.057093702256679535 0.13619700074195862
-0.040621161460876465 0.1399848312139511 0.07707034051418304
-0.10921309143304825 0.08920713514089584 0.002661224454641342
0.016473056748509407 -0.09608222544193268 0.010378913953900337
-0.01655716449022293 -0.09618857502937317 0.0540606826543808
-0.07382507622241974 0.11249946057796478 0.12705782055854797
-0.11806784570217133 0.01359926350414753 0.12560559809207916
0.10147333145141602 -0.08346153795719147 0.012019531801342964
0.06308495253324509 -0.032464832067489624 -0.280866801738739
0.07082474231719971 -0.10751591622829437 -0.06648518890142441
0.041208893060684204 -0.04902029410004616 -0.27474990487098694
0.10721474885940552 -0.05951625481247902 -0.002400013618171215
-0.045885518193244934 -0.08353181183338165 0.06899859756231308
0.039723001420497894 -0.09859366714954376 0.03887803107500076
-0.040010470896959305 0.1328967809677124 0.20645949244499207
0.0350116565823555 -0.11137247085571289 0.25197935104370117
0.12354584038257599 -0.049435488879680634 0.0106118805706501
0.062258973717689514 -0.09382566064596176 -0.11082692444324493
-0.12300661206245422 0.006392836105078459 0.021475331857800484
0.12219731509685516 -0.030676351860165596 -0.12996724247932434
-0.05319876968860626 0.1193392425775528 0.429080069065094
0.06941474974155426 -0.10230650007724762 0.20656146109104156
-0.014044906944036484 -0.1018310934305191 -0.09737085551023483
-0.09428492933511734 0.008852118626236916 -0.13694533705711365
-0.021256987005472183 -0.04997412860393524 -0.16322952508926392
-0.04225324094295502 0.14837656915187836 0.04917357116937637
-0.09441713988780975 0.0892484039068222 0.029926778748631477
0.04626109451055527 -0.0913098156452179 0.006233769468963146
0.0697128027677536 -0.09476244449615479 -0.015557482838630676
0.09008815884590149 -0.0771622434258461 -0.0054650017991662025
0.05856816843152046 -0.10432177782058716 -0.035193439573049545
0.06644207239151001 -0.09511187672615051 -0.016154788434505463
-0.12388835847377777 0.004237879067659378 0.0092769805341959
0.09034304320812225 -0.0958169549703598 -0.06776011735200882
0.04389435425400734 -0.09251953661441803 -0.006481995806097984
-0.11608970910310745 0.04130479693412781 0.09521843492984772
0.029201161116361618 -0.11029726266860962 -0.10582265257835388
-0.07296139001846313 -0.08414335548877716 -0.0701829120516777
0.12118612974882126 -0.061594195663928986 0.014491047710180283
-0.01789679564535618 -0.0993298590183258 0.09909547865390778
-0.1299128532409668 0.02617848664522171 0.04348848760128021
-0.020987700670957565 -0.1012934148311615 0.24631592631340027
0.11825138330459595 -0.056996576488018036 0.10288738459348679
-0.09422153979539871 0.07838001847267151 -0.12299562990665436
-0.07107894122600555 -0.07724012434482574 0.16886547207832336
0.12805670499801636 -0.05077492445707321 0.003696981817483902
0.10218621790409088 -0.061753492802381516 -0.000867009162902832
0.11004222929477692 -0.06078757345676422 -0.001027389895170927
0.06405283510684967 -0.0988592728972435 0.1778968721628189
0.03756313398480415 -0.10579004883766174 -0.03359568864107132
-0.018303658813238144 -0.04744044691324234 -0.20902760326862335
-0.03708122298121452 0.1251140683889389 0.297118604183197
-0.04153567552566528 -0.03171304613351822 -0.21327373385429382
0.009368082508444786 -0.10992629826068878 -0.03557587042450905
-0.12102720141410828 -0.005499621387571096 0.09047180414199829
0.03036610223352909 -0.093636155128479 -0.12491393089294434
0.04068495333194733 -0.10672463476657867 -0.03396877646446228
-0.06996584683656693 0.13734431564807892 0.02863425388932228
-0.05527440458536148 0.12780983746051788 0.13939595222473145
-0.11460062861442566 -0.007557685486972332 0.24529705941677094
-0.06632444262504578 -0.08637461066246033 -0.08750593662261963
-0.13901874423027039 0.04191971197724342 -0.0802340880036354
-0.09008851647377014 -0.04365551099181175 -0.12074071913957596
-0.09765415638685226 -0.05290834605693817 0.016539786010980606
0.0877610594034195 -0.08796879649162292 0.17832529544830322
-0.10967431217432022 -0.02274543046951294 0.06644213944673538
-0.13470733165740967 0.075572669506073 -0.05494033172726631
0.11273917555809021 -0.07632920145988464 -0.1048002615571022
-0.08670978248119354 0.11458584666252136 0.05992722138762474
0.07392957806587219 -0.02311459369957447 -0.29917216300964355
-0.07261566817760468 0.07655789703130722 -0.20724567770957947
0.12971532344818115 -0.057192470878362656 -0.08670074492692947
0.09850475937128067 -0.020888298749923706 -0.1468237340450287
0.11860045045614243 -0.05155628174543381 0.007183861453086138
-0.08791157603263855 0.039244286715984344 -0.33046653866767883
-0.06595800071954727 0.1279752254486084 0.026868991553783417
-0.013143502175807953 -0.0960446149110794 0.0485914871096611
-0.05640263855457306 -0.09749206155538559 -0.07454748451709747
-0.00013000867329537868 -0.10661523789167404 0.020787164568901062
0.09830363094806671 -0.09936964511871338 0.3699842095375061
-0.11178842931985855 0.0846560150384903 0.013352345675230026
-0.09618557244539261 0.11641640961170197 -0.09682455658912659
0.10281626880168915 -0.07173517346382141 -0.010930942371487617
-0.08198000490665436 -0.043282538652420044 -0.11426351219415665
-0.016651207581162453 -0.047643691301345825 -0.21248847246170044
-0.08650153130292892 0.050988487899303436 -0.14013078808784485
-0.0875781700015068 -0.06613084673881531 0.014043143950402737
0.10477980971336365 -0.061286941170692444 -0.0017904220148921013
0.06191035360097885 -0.09049621224403381 -0.11126136779785156
-0.0957917869091034 0.08460155874490738 0.1941443830728531
0.09014400839805603 -0.07720497250556946 -0.007651505060493946
-0.0901201069355011 -0.07165567576885223 -0.0663861632347107
0.04360217601060867 -0.09177567064762115 -0.006774901878088713
-0.10495573282241821 0.12083356827497482 -0.058799661695957184
0.06951029598712921 -0.10502409934997559 -0.031144877895712852
0.12347272038459778 -0.06064305454492569 0.01646265760064125
-0.11850160360336304 0.02087450586259365 0.09450238943099976
-0.10613299906253815 0.05916619300842285 0.24420666694641113
0.017406228929758072 -0.09881746768951416 0.14179645478725433
-0.003560718148946762 -0.046336181461811066 -0.2163979411125183
0.003003038465976715 -0.05107354372739792 -0.3108915686607361
0.04006320983171463 -0.08900775015354156 0.007020709104835987
0.09910377115011215 -0.08314235508441925 0.20513296127319336
0.007789156399667263 -0.10843473672866821 0.1777995526790619
-0.04497490078210831 -0.026191622018814087 -0.259908527135849
0.0841011330485344 0.004373617470264435 -0.22725729644298553
-0.11527648568153381 0.0657896026968956 -0.11274200677871704
0.06842111051082611 -0.09781786799430847 0.17926272749900818
0.06785700470209122 -0.06767773628234863 -0.13910546898841858
0.1162780150771141 -0.06490828096866608 0.15512418746948242
-0.1336306780576706 0.08070706576108932 -0.051791753619909286
-0.10373790562152863 0.052090227603912354 0.3416494131088257
0.08550042659044266 -0.07462599128484726 -0.005972213111817837
0.06266743689775467 -0.09875555336475372 0.1388707160949707
-0.08026044070720673 0.026960771530866623 -0.3093603849411011
0.09050226211547852 -0.067104272544384 -0.13056793808937073
0.06363384425640106 -0.051950037479400635 -0.14868202805519104
0.10343042016029358 -0.06880049407482147 -0.015959465876221657
0.1265823096036911 -0.048572588711977005 0.008739261887967587
-0.02111254632472992 -0.10179323703050613 -0.10521338880062103
0.04054449871182442 -0.0744425430893898 -0.1401953101158142
-0.06823577731847763 0.11478056013584137 0.02435798943042755
0.1029520109295845 -0.030529294162988663 -0.14723455905914307
0.12589392066001892 -0.04806343466043472 0.0036315072793513536
0.08707840740680695 -0.08544998615980148 0.16514159739017487
-0.06813980638980865 0.1441691517829895 -0.08158919960260391
-0.1200689971446991 0.0651896744966507 0.004214088432490826
-0.019567983224987984 0.10575681924819946 -0.3586140275001526
-0.12215866893529892 0.009979741647839546 0.028281496837735176
-0.03673011064529419 -0.02218128740787506 -0.34392157196998596
-0.04469954967498779 0.14046965539455414 0.08758494257926941
0.10845588147640228 -0.06545493006706238 0.09771018475294113
-0.04360909014940262 0.10025253891944885 -0.15964660048484802
-0.09733505547046661 0.0815851241350174 0.16998906433582306
-0.009516517631709576 -0.05052720010280609 -0.2087114155292511
0.033084556460380554 -0.10749194025993347 -0.10707342624664307
0.043137505650520325 -0.09499485045671463 -0.0073094964027404785
-0.01449630968272686 -0.06123274192214012 -0.1443728506565094
-0.05293259024620056 0.06017737835645676 -0.4003344774246216
-0.08484427630901337 0.12865805625915527 0.038560763001441956
-0.02803780324757099 -0.04066060483455658 -0.28468945622444153
0.06664697825908661 -0.09343280643224716 -0.014691853895783424
-0.10389592498540878 0.08270835131406784 0.08314474672079086
-0.057840973138809204 -0.08870429545640945 -0.10330226272344589
0.0832270085811615 -0.07649553567171097 0.008517777547240257
0.1267600953578949 -0.06161613389849663 0.012232698500156403
-0.08603553473949432 0.10632643103599548 0.07596699893474579
0.07445766031742096 -0.09892538189888 0.1981998085975647
-0.09023300558328629 -0.0471491701900959 0.0004530162550508976
-0.06216553971171379 0.08356935530900955 -0.21979743242263794
-0.11584059149026871 0.03525559604167938 0.3728369176387787
-0.13688606023788452 0.03676091134548187 -0.0410323292016983
-0.00935453176498413 -0.0480106920003891 -0.19562584161758423
-0.10927946865558624 -0.02887740731239319 0.38293203711509705
0.0454743430018425 -0.09046269953250885 -0.009482773020863533
0.007413838524371386 -0.10073024034500122 0.10026395320892334
-0.11628618091344833 0.04946725070476532 0.12490344047546387
0.021121254190802574 -0.10145513713359833 0.04810940474271774
-0.08757346123456955 -0.04828272759914398 0.059327881783246994
-0.10841289162635803 -0.018369773402810097 0.0033735278993844986
0.04440261423587799 -0.10385702550411224 0.015010803937911987
0.010763563215732574 -0.008716699667274952 -0.4043963849544525
-0.0896054059267044 -0.044131867587566376 -0.12466355413198471
-0.06268272548913956 0.0004583355039358139 -0.3040902018547058
-0.06359318643808365 0.1219726949930191 0.16741159558296204
0.0673127993941307 -0.03690421208739281 -0.18375267088413239
-0.10487211495637894 0.06820115447044373 0.1814328134059906
0.05554971843957901 -0.10966560244560242 -0.052371617406606674
-0.07908716052770615 -0.0696358010172844 0.2485901415348053
0.10626807808876038 -0.061486173421144485 -0.0012728211004287004
-0.03905341029167175 0.11119210720062256 -0.26940369606018066
0.049477607011795044 -0.10632288455963135 0.20107993483543396
0.11908741295337677 -0.0642080157995224 0.11526887863874435
0.10034909844398499 -0.08725764602422714 0.011324049904942513
-0.11565694212913513 0.05197041854262352 0.13152839243412018
0.09163545817136765 -0.0772491991519928 -0.007152590900659561
-0.01635795086622238 -0.08612315356731415 0.006639817729592323
-0.12366656213998795 0.052929025143384933 -0.010984591208398342
0.11739959567785263 -0.06745998561382294 0.0188438780605793
-0.08896400779485703 0.11728116869926453 0.05612250417470932
0.018435677513480186 -0.0508667416870594 -0.17196771502494812
-0.09289401024580002 0.09345481544733047 0.09219294786453247
-0.12110891938209534 0.09381694346666336 -0.09956908226013184
-0.025859905406832695 -0.10371947288513184 0.3059459328651428
0.12405332922935486 -0.0527118518948555 0.01501122210174799
0.10704348981380463 -0.08641974627971649 -0.06617448478937149
0.06748401373624802 -0.09345030039548874 0.12528958916664124
0.027440344914793968 -0.10870666801929474 -0.10462451726198196
-0.042378541082143784 -0.10203438252210617 0.2982620596885681
-0.01679237373173237 -0.043881502002477646 -0.20185112953186035
0.04459850862622261 -0.04517081752419472 -0.21636492013931274
0.10632133483886719 -0.07951567322015762 0.02459903433918953
-0.06436720490455627 0.11718861758708954 0.2847645580768585
-0.11234869062900543 -0.011840049177408218 0.33580249547958374
0.11880609393119812 -0.05383595451712608 -0.1177414059638977
-0.07728444039821625 0.11336535960435867 0.12848079204559326
0.03760344535112381 -0.09178659319877625 0.012370152398943901
0.08151951432228088 -0.017596270889043808 -0.3361719250679016
0.06367073208093643 -0.09637201577425003 0.11885707080364227
-0.09897714853286743 -0.038017623126506805 0.24393664300441742
0.010866425931453705 0.09775032103061676 -0.3916269540786743
-0.08405812084674835 0.10673708468675613 -0.11750258505344391
0.13164770603179932 -0.046929966658353806 0.01568840816617012
-0.022274142131209373 -0.047559816390275955 -0.1574999839067459
-0.07136285305023193 0.12190339714288712 0.07559680938720703
0.0013427725061774254 -0.10650667548179626 -0.10912105441093445
-0.12135867774486542 0.08189739286899567 -0.024497902020812035
-0.07993040978908539 0.12687493860721588 0.0322667695581913
-0.07899435609579086 -0.06462284922599792 -0.02404990792274475
-0.1169799417257309 -0.029032036662101746 -0.06724869459867477
0.02616586908698082 -0.10045856982469559 0.08738362789154053
0.022602632641792297 -0.10407918691635132 0.04001731798052788
-0.023988375440239906 0.01628982461988926 -0.39273858070373535
0.11125337332487106 -0.07503741979598999 -0.04532824456691742
0.03711354732513428 -0.10642895102500916 -0.03641647845506668
0.06354490667581558 -0.1066800057888031 -0.06791215389966965
0.11712899804115295 -0.05227311700582504 0.09874129295349121
0.03295132890343666 -0.06479470431804657 -0.15000353753566742
-0.06589236855506897 0.09695970267057419 -0.1317700296640396
-0.12375758588314056 0.008450332097709179 0.023139942437410355
-0.044257014989852905 -0.09892416000366211 -0.05257119983434677
0.04411197826266289 -0.08968495577573776 -0.006789791397750378
-0.024681491777300835 0.042789019644260406 -0.398907333612442
-0.03259200602769852 0.06660603731870651 -0.396615207195282
0.06565935909748077 -0.10148335993289948 -0.03318319469690323
-0.0027210135012865067 -0.1066175252199173 -0.11085344105958939
-0.11874577403068542 0.06184855103492737 0.004685497377067804
-0.09283629059791565 0.09591589868068695 -0.11673901230096817
-0.11912624537944794 0.06470275670289993 0.0049063717015087605
-0.11701923608779907 0.03905799984931946 0.0691554844379425
-0.005564882420003414 -0.04890536144375801 -0.21399134397506714
0.042638011276721954 -0.10354424268007278 0.17341172695159912
-0.07869842648506165 0.11224481463432312 0.1468888819217682
0.04614242911338806 -0.10526174306869507 0.1755756437778473
0.022446971386671066 -0.10858286917209625 -0.03750687092542648
-0.03880240023136139 0.11736467480659485 -0.2109246850013733
-0.04012468084692955 -0.0894262045621872 0.11552087962627411
0.09682883322238922 -0.08225661516189575 0.22307991981506348
-0.0221564881503582 0.1212400570511818 -0.14750619232654572
-0.05660166218876839 -0.010549789294600487 -0.21571901440620422
-0.07118947058916092 -0.06989984959363937 -0.10179172456264496
-0.11934395134449005 0.1047351211309433 -0.0674768015742302
-0.0880943089723587 0.10962697863578796 -0.00898087676614523
-0.01640520617365837 -0.0070022232830524445 -0.37176787853240967
-0.0717097744345665 0.11222614347934723 0.30029910802841187
0.010533967986702919 -0.048933349549770355 -0.33439284563064575
-0.06555046141147614 0.12763911485671997 0.08690750598907471
-0.05925033614039421 -0.08527323603630066 0.03276216983795166
-0.03904015198349953 0.11003760248422623 -0.2498687505722046
-0.085518978536129 -0.09216787666082382 0.42253100872039795
-0.00860259123146534 -0.0957932397723198 0.10765402019023895
-0.08790820837020874 -0.05310838669538498 0.07093796879053116
-0.12219321727752686 0.05379626154899597 -0.11999614536762238
0.09595106542110443 -0.09523789584636688 0.34513187408447266
-0.1025475263595581 0.08140818774700165 0.08123796433210373
0.12443727999925613 -0.04903775081038475 0.009001882746815681
0.02650568261742592 -0.11000506579875946 0.29167473316192627
0.012253533117473125 -0.09635677933692932 0.0023626554757356644
-0.11268331110477448 0.02338089607656002 0.1944701075553894
0.10415276885032654 -0.0662061870098114 -0.01244395412504673
0.08762844651937485 -0.08357100188732147 -0.11368755996227264
0.10190623998641968 -0.08458326011896133 0.010391384363174438
0.04071439057588577 -0.10786513239145279 -0.030150074511766434
-0.1341581493616104 0.02556995302438736 -0.007980026304721832
-0.0914696604013443 0.09115542471408844 0.03197244927287102
-0.0035538948141038418 -0.049861762672662735 -0.28260064125061035
-0.11629775166511536 0.08943977952003479 0.03441447392106056
0.059116095304489136 -0.09957778453826904 0.039371609687805176
0.08796673268079758 -0.0919085144996643 0.16289862990379333
0.07177390158176422 -0.10112632066011429 -0.02913767471909523
-0.10338640213012695 0.061949409544467926 0.2684382200241089
-0.130751371383667 0.01913336105644703 -0.0040624672546982765
-0.11591982841491699 0.06051198020577431 0.0086906086653471
-0.10631804168224335 0.1187455803155899 -0.06758309155702591
-0.0813060849905014 0.1330004334449768 0.04049747437238693
-0.07324953377246857 0.0636754184961319 -0.2236190289258957
-0.0981593132019043 0.09162823855876923 0.10794561356306076
-0.11409114301204681 0.03549280762672424 0.09319037199020386
-0.048356082290410995 0.10290898382663727 -0.22981223464012146
0.09054851531982422 -0.08704271167516708 0.0297587551176548
0.12107330560684204 -0.05129525810480118 0.009268873371183872
-0.11777164041996002 0.055340930819511414 0.009794950485229492
0.06205374002456665 -0.09666374325752258 -0.10742578655481339
0.014447949826717377 -0.1038619875907898 0.04122798889875412
0.02633821964263916 -0.09800276160240173 0.09436680376529694
-0.08452855050563812 0.11402550339698792 0.05901321396231651
-0.06951598078012466 0.06904096901416779 -0.19697025418281555
-0.09385807812213898 -0.04648579657077789 0.18233051896095276
0.10820217430591583 -0.06177561730146408 -0.0022373003885149956
0.123634934425354 -0.09819008409976959 0.42189550399780273
-0.10726820677518845 0.08248695731163025 0.008072874508798122
0.03605392575263977 -0.08888553082942963 -0.13023962080478668
0.12385112047195435 -0.05222158506512642 0.005874876864254475
-0.04566195607185364 -0.09074778854846954 0.1353345364332199
-0.001982268178835511 -0.09767256677150726 0.059848420321941376
-0.0772475153207779 -0.07484263926744461 -0.037050895392894745
0.10737356543540955 -0.06168534979224205 -0.0023275725543498993
0.01592288538813591 -0.09626606106758118 0.1202312484383583
0.015226755291223526 -0.11677386611700058 0.3196680545806885
-0.08978068828582764 -0.06501545011997223 0.006487775593996048
0.07034551352262497 -0.10623480379581451 -0.03073439747095108
-0.10417349636554718 -0.023926712572574615 0.06282222270965576
-0.1317402720451355 0.02000570110976696 -0.007427843287587166
0.1217556893825531 -0.050414592027664185 0.007552889175713062
-0.11884982883930206 0.03946768864989281 0.07052495330572128
0.022237613797187805 -0.10300742089748383 0.08938400447368622
0.06650125235319138 -0.09082034975290298 -0.012843964621424675
-0.10181223601102829 0.0749911218881607 0.2320706695318222
-0.10005806386470795 0.07071855664253235 0.21189890801906586
0.04191391542553902 -0.0922185480594635 -0.009978929534554482
-0.05687163770198822 0.12745988368988037 0.22003349661827087
0.045358218252658844 -0.08900301903486252 -0.011472899466753006
-0.08682544529438019 -0.06303463131189346 0.3230249583721161
0.04392049461603165 -0.09085594862699509 -0.004268978722393513
0.07144836336374283 -0.08957670629024506 -0.011262411251664162
0.0024961717426776886 0.022507576271891594 -0.4100759029388428
0.016118720173835754 -0.10016229003667831 0.12064361572265625
0.09194403886795044 -0.09380331635475159 -0.06818428635597229
-0.0553840808570385 0.15116867423057556 -0.09766480326652527
-0.09922096878290176 0.07593200355768204 0.22814494371414185
-0.034911807626485825 0.11789815127849579 -0.14123836159706116
-0.009834022261202335 -0.1034541204571724 0.03317233920097351
0.005910028703510761 -0.04649452120065689 -0.1831018030643463
-0.07346199452877045 0.07162890583276749 -0.2758098244667053
0.049391500651836395 -0.11484852433204651 -0.054023586213588715
-0.10576628893613815 -0.02417236566543579 0.06475279480218887
0.12415806204080582 -0.05116788670420647 0.006134822033345699
-0.07044510543346405 0.11377668380737305 0.02037145011126995
0.06895898282527924 -0.09229813516139984 -0.013387327082455158
0.0756601095199585 -0.08299950510263443 0.07825811952352524
-0.06565773487091064 0.12999948859214783 0.10606155544519424
-0.0828029066324234 0.032776616513729095 -0.14821361005306244
-0.03794048726558685 -0.03415808826684952 -0.21267753839492798
0.11012513935565948 -0.07521113753318787 -0.10097464919090271
0.061829835176467896 -0.09855574369430542 0.13642999529838562
-0.05950164422392845 0.08697442710399628 -0.22134095430374146
-0.10372747480869293 -0.022737562656402588 0.06417877972126007
-0.06938578933477402 0.12669749557971954 0.07184146344661713
-0.07726694643497467 -0.019094858318567276 -0.14888912439346313
0.06217130273580551 0.0181510578840971 -0.39238137006759644
0.012474320828914642 -0.13635632395744324 0.41670697927474976
-0.03981596603989601 -0.08924265205860138 -0.1058233454823494
-0.030116163194179535 -0.07318609952926636 -0.13702264428138733
0.046090975403785706 -0.08985635638237 -0.011240756139159203
-0.028025539591908455 -0.09564236551523209 -0.11975884437561035
0.040344975888729095 -0.10315510630607605 0.03831706568598747
0.0584806352853775 -0.0392017588019371 -0.30579811334609985
-0.07356377691030502 -0.06988456845283508 0.17963457107543945
-0.059366509318351746 0.11898479610681534 0.3475494682788849
-0.03611917793750763 -0.03164193406701088 -0.29967018961906433
0.04188201203942299 -0.054471705108881 -0.1623266190290451
-0.012518292292952538 -0.04580944776535034 -0.2003084421157837
0.08946628868579865 -0.08235614746809006 -0.005729169584810734
0.06569210439920425 -0.1146247535943985 0.40099990367889404
-0.09208525717258453 -0.06504067778587341 -0.10141914337873459
-0.121462881565094 0.07385902851819992 0.03297394886612892
0.10094379633665085 -0.07029394805431366 -0.012837322428822517
-0.07633376121520996 0.1336679458618164 -0.009849276393651962
0.08662815392017365 -0.0785888209939003 -0.0018679560162127018
-0.0006463483441621065 -0.08483593165874481 0.007568997330963612
-0.12886476516723633 0.058331239968538284 -0.008932950906455517
0.13177233934402466 -0.05181927978992462 -0.0924968346953392
-0.055240876972675323 -0.08778410404920578 0.03418098762631416
0.0903681069612503 -0.0766572579741478 -0.006836883723735809
-0.1021430492401123 -0.02109849452972412 0.1227969154715538
-0.12226331233978271 0.008718731813132763 0.014312980696558952
-0.11196689307689667 0.08364859968423843 -0.00019594654440879822
-0.10756031423807144 -0.04343372955918312 -0.07583910971879959
0.009425964206457138 -0.05183735117316246 -0.2746771275997162
0.05837104469537735 -0.10686368495225906 -0.0330529510974884
0.11190609633922577 -0.05556882172822952 -0.11870404332876205
-0.07977321743965149 0.07170364260673523 -0.31468015909194946
0.1298760324716568 -0.0738949254155159 0.3838386535644531
-0.06495271623134613 0.1580858677625656 -0.03618385270237923
0.07145439833402634 -0.09063764661550522 0.061668701469898224
-0.11989976465702057 0.005285607650876045 0.011139030568301678
-0.11024341732263565 0.05871710926294327 0.19114965200424194
0.056587688624858856 -0.1075342446565628 -0.06387732923030853
-0.0789145901799202 0.09979468584060669 0.3904769718647003
-0.04757262393832207 0.12982414662837982 0.12769664824008942
0.06951093673706055 -0.09029649198055267 -0.012053454294800758
-0.10283723473548889 0.08148600161075592 0.0834377110004425
0.10973245650529861 -0.06054806709289551 -0.0017448076978325844
-0.13129115104675293 0.012195313349366188 0.42456573247909546
0.04325038939714432 -0.09241892397403717 -0.0073684211820364
-0.12657232582569122 0.06691642105579376 0.029389958828687668
-0.09379775077104568 -0.06214706599712372 -0.07831739634275436
-0.09474751353263855 0.10877498984336853 -0.1123104989528656
-0.08473817259073257 0.023927677422761917 -0.1564275026321411
-0.014428956434130669 -0.10530297458171844 0.21185831725597382
0.12988092005252838 -0.042732223868370056 0.056742630898952484
-0.09094846993684769 -0.055511221289634705 0.07064656168222427
-0.09359738230705261 0.11238778382539749 -0.00022147689014673233
0.09326795488595963 -0.08484439551830292 0.030891630798578262
-0.10720467567443848 0.08295491337776184 0.01404767856001854
0.07368263602256775 -0.10648708045482635 -0.07068466395139694
-0.07747931778430939 0.05563877522945404 -0.19099503755569458
-0.07712668925523758 -0.057157404720783234 -0.1309368759393692
0.06245984882116318 -0.03616120666265488 -0.3368368148803711
0.10165926814079285 -0.0847981795668602 0.009521691128611565
0.03994601592421532 -0.0906815230846405 0.008770820684731007
-0.09754883497953415 0.010637879371643066 -0.1408749520778656
0.12978017330169678 -0.044327013194561005 0.1136082112789154
-0.11928823590278625 -0.024754811078310013 -0.058332160115242004
0.06872687488794327 -0.06716365367174149 -0.13708439469337463
-0.006615454331040382 -0.05250435695052147 -0.23588164150714874
-0.01881854422390461 -0.042486101388931274 -0.20758509635925293
-0.04432598501443863 -0.02983667701482773 -0.20187172293663025
-0.02350362204015255 -0.03918589651584625 -0.24846750497817993
-0.10371935367584229 -0.022242054343223572 0.1302473247051239
-0.02420724555850029 -0.043592534959316254 -0.3236379623413086
0.042151227593421936 -0.09322497248649597 -0.010795282199978828
0.06350846588611603 -0.034232717007398605 -0.24124285578727722
-0.07423438131809235 0.009065552614629269 -0.1617671549320221
-0.06355001032352448 0.14438600838184357 -0.020936809480190277
-0.11822107434272766 0.013450047001242638 0.27082473039627075
-0.09033167362213135 0.09258561581373215 0.030673518776893616
-0.062298886477947235 0.07983450591564178 -0.19696545600891113
0.08242499828338623 -0.056384481489658356 -0.1345420479774475
-0.12689423561096191 0.05863707512617111 -0.014788005501031876
0.09301655739545822 -0.0878121629357338 0.02974921651184559
-0.029944922775030136 -0.0922451838850975 0.07322273403406143
-0.10399637371301651 -0.025722764432430267 0.25844088196754456
-0.05996233969926834 0.15380337834358215 -0.0507519468665123
0.05510779842734337 -0.11058595031499863 -0.03532927483320236
0.10597613453865051 -0.08215312659740448 0.01720574125647545
0.0438808836042881 -0.10005716234445572 0.03844140097498894
0.06704593449831009 -0.09201854467391968 -0.013981238007545471
-0.06483331322669983 0.13239146769046783 0.1034490242600441
-0.05064956471323967 0.1144198477268219 -0.34099340438842773
-0.039710305631160736 -0.09086398780345917 -0.024473784491419792
-0.09692637622356415 0.08963608741760254 0.03190568834543228
-0.07286088168621063 0.11000917851924896 0.2515471279621124
0.12169879674911499 -0.05020187795162201 0.010102554224431515
0.13154906034469604 -0.0433432012796402 0.05834946036338806
0.05645301938056946 -0.1078864336013794 -0.039948344230651855
0.10162486881017685 -0.06955023854970932 -0.014339038170874119
-0.10940492898225784 0.07605922222137451 0.06442791223526001
0.03882291167974472 -0.05029323697090149 -0.1638200879096985
0.12195279449224472 -0.06377135217189789 0.016880013048648834
-0.13193869590759277 0.02212606742978096 -0.006282454822212458
-0.021426763385534286 -0.04303458705544472 -0.20136818289756775
-0.07029366493225098 0.12387952208518982 0.07393630594015121
-0.1170591413974762 0.021197207272052765 0.09454169869422913
-0.08637306094169617 -0.06372881680727005 0.04779592901468277
0.10352696478366852 -0.08086815476417542 0.02446269616484642
0.05689191073179245 -0.10969552397727966 0.2716410756111145
0.05571151524782181 -0.10986901819705963 -0.03804513067007065
0.04290586709976196 -0.0901692807674408 -0.0062158675864338875
0.08493704348802567 -0.07674523442983627 0.006196046248078346
0.0313156321644783 -0.0981840193271637 -0.11657677590847015
-0.05962628126144409 -0.012547440826892853 -0.31648188829421997
-0.09920854866504669 -0.03707156330347061 0.2641746699810028
0.11694914102554321 -0.07008759677410126 0.019166996702551842
-0.001149022951722145 -0.10820987820625305 -0.08488442748785019
-0.13086119294166565 0.02847357466816902 0.04245252534747124
-0.10451114177703857 0.12408473342657089 -0.06949559599161148
0.026617515832185745 -0.12226443737745285 0.006026037968695164
-0.06078715622425079 0.11123572289943695 0.3280752897262573
0.028492223471403122 -0.10156361758708954 0.10805691033601761
-0.0048261163756251335 -0.10914713144302368 -0.09435135126113892
0.060518085956573486 -0.09462310373783112 -0.11637983471155167
-0.11558620631694794 0.06141002103686333 0.0038804763462394476
0.08448371291160583 -0.007325795013457537 -0.2666604816913605
0.03289885073900223 -0.10967512428760529 -0.04008613899350166
-0.0016554426401853561 -0.12130051851272583 0.35948890447616577
-0.11561289429664612 0.03901340812444687 0.09891552478075027
-0.07154612988233566 0.11411315202713013 0.02553529664874077
-0.10490044951438904 -0.02050880156457424 0.06404085457324982
0.05534457415342331 -0.11390349268913269 -0.06409410387277603
-0.021496513858437538 -0.10737872123718262 -0.05861655995249748
-0.03046848624944687 -0.09980766475200653 -0.04046010226011276
-0.08845210075378418 -0.04335501044988632 -0.12465256452560425
-0.05109183490276337 -0.0020220810547471046 -0.3511107563972473
-0.11349371075630188 -0.010757338255643845 0.30893993377685547
0.10497419536113739 -0.08521487563848495 -0.054039232432842255
0.10870985686779022 -0.05976029485464096 -0.0018508583307266235
-0.017607545480132103 -0.07825551182031631 -0.1336286962032318
-0.04603075608611107 -0.0982450395822525 -0.09545797109603882
-0.03858983889222145 0.110760897397995 -0.19184330105781555
-0.0759032815694809 0.1165970116853714 0.10457224398851395
0.11218433827161789 -0.0718100443482399 -0.10093280673027039
0.06402616202831268 -0.09460624307394028 -0.11609630286693573
-0.12960992753505707 0.02416962943971157 -0.0036763411480933428
0.05863429605960846 -0.10180787742137909 0.21061208844184875
-0.06705669313669205 -0.07832830399274826 0.20663100481033325
-0.04486869275569916 0.13754691183567047 0.09457116574048996
-0.0673213079571724 0.13758403062820435 -0.012149048037827015
-0.048245061188936234 0.10529360175132751 -0.1460799127817154
-0.06377396732568741 -0.09852223098278046 0.3023865222930908
-0.09722182154655457 0.07970668375492096 0.42357969284057617
0.06417550891637802 -0.09424194693565369 -0.01459182146936655
-0.09978418052196503 -0.048584673553705215 -0.10002250224351883
-0.12764596939086914 0.04918067157268524 -0.10614459216594696
0.12931379675865173 -0.04566410928964615 0.13419681787490845
-0.04185545817017555 0.1369227170944214 0.010826503857970238
0.0490567684173584 -0.11599506437778473 -0.05545755848288536
0.1330973207950592 -0.045227013528347015 0.19919084012508392
0.04134637117385864 -0.09828382730484009 0.1151767447590828
-0.008955295197665691 -0.10121392458677292 0.12358418852090836
0.027475712820887566 -0.09868698567152023 0.08805884420871735
0.0667010024189949 -0.09059540182352066 -0.012536637485027313
-0.08769312500953674 0.10227369517087936 0.0757002905011177
-0.0338144414126873 0.12816035747528076 0.2716084122657776
-0.05058423429727554 -0.08642875403165817 0.08156085014343262
-0.11848851293325424 -0.008769889362156391 -0.012532847933471203
0.11859354376792908 -0.07086528837680817 0.022126454859972
-0.09933155030012131 0.07714580744504929 0.22861531376838684
0.04558400809764862 -0.06318864226341248 -0.15477444231510162
-0.044002607464790344 -0.024767469614744186 -0.2510586678981781
0.06028742343187332 -0.0978887677192688 0.039895251393318176
0.07434149086475372 -0.020956698805093765 -0.22734268009662628
-0.007233000826090574 -0.10541176795959473 0.274860680103302
0.03418142348527908 -0.11882022023200989 0.3623373508453369
-0.010025471448898315 -0.0058779288083314896 -0.39103707671165466
-0.07738703489303589 0.06031026691198349 -0.18970805406570435
-0.10505187511444092 0.10194449126720428 -0.0053535085171461105
-0.016833921894431114 -0.04387542977929115 -0.3134358823299408
-0.1252269595861435 -0.012722974643111229 0.4107336699962616
0.09332078695297241 -0.04002569615840912 -0.14565891027450562
-0.016702018678188324 -0.04868772625923157 -0.19375327229499817
0.09636443853378296 -0.07507307082414627 -0.12895041704177856
0.06726974248886108 -0.09325988590717316 -0.0130977937951684
-0.10352125763893127 0.04470846801996231 -0.13801339268684387
-0.1319902539253235 0.028957968577742577 0.04389010742306709
-0.09449233114719391 0.024170860648155212 -0.13635846972465515
0.0013010203838348389 -0.018010389059782028 -0.36451560258865356
-0.03849044069647789 0.14774256944656372 0.05434823036193848
0.040132928639650345 -0.10705148428678513 -0.03523162752389908
0.12033458054065704 -0.07874257117509842 0.3393738865852356
0.036028385162353516 -0.08625133335590363 0.0036631347611546516
-0.1192215234041214 -0.015963835641741753 -0.017401771619915962
-0.02005338855087757 -0.11237236857414246 0.33361753821372986
0.07098835706710815 -0.09552164375782013 0.09944307059049606
-0.07782045006752014 0.024306152015924454 -0.16575390100479126
0.06186750531196594 -0.09584327042102814 -0.11379928886890411
0.09501806646585464 -0.0366043783724308 -0.14494818449020386
0.11527247726917267 -0.08153751492500305 -0.09030210226774216
0.06806804984807968 -0.10034580528736115 -0.030493691563606262
-0.09991026669740677 0.07990187406539917 0.18053898215293884
0.02370118908584118 -0.09706021845340729 0.09174176305532455
-0.12220966815948486 0.06264325976371765 0.001774333417415619
-0.02154127135872841 -0.09936551749706268 -0.10435237735509872
0.1181582510471344 -0.06873596459627151 0.02209831401705742
0.0858234390616417 -0.07080208510160446 -0.13210976123809814
-0.05919566750526428 0.09941205382347107 -0.13946783542633057
-0.11322823911905289 0.0888834223151207 0.001094358041882515
-0.0805341899394989 -0.07676193863153458 -0.06448113173246384
-0.08322806656360626 0.04715073108673096 -0.24047835171222687
0.06420749425888062 -0.05985144525766373 -0.15217557549476624
0.06271223723888397 -0.09759677946567535 -0.11460182815790176
0.11563362926244736 -0.07279223948717117 -0.10586804896593094
-0.05294213443994522 0.13101425766944885 0.015712905675172806
0.035019390285015106 -0.036847349256277084 -0.3599482774734497
0.04035571217536926 -0.10098499059677124 0.12367081642150879
-0.07469630241394043 -0.07129202783107758 -0.0931406021118164
-0.11051202565431595 0.07617899775505066 0.0642869770526886
0.08468352258205414 -0.07870455086231232 0.005035208072513342
-0.010741762816905975 -0.11504773795604706 0.3385983109474182
0.1126098483800888 -0.06530728191137314 0.13157238066196442
-0.09501206874847412 0.08648525178432465 0.19145217537879944
0.046652574092149734 -0.09740721434354782 -0.009901853278279305
-0.1191195398569107 0.05504099279642105 0.008574940264225006
-0.10791966319084167 0.11022023111581802 -0.06672384589910507
-0.004378072917461395 -0.08739791065454483 0.003861099248751998
-0.08727840334177017 0.10478358715772629 0.08223164081573486
0.11917141824960709 -0.051388196647167206 0.009753631427884102
-0.06916496157646179 0.005075613968074322 -0.1502193659543991
0.015126030892133713 -0.09582580626010895 0.000622134655714035
0.057927630841732025 -0.03267954662442207 -0.323089599609375
0.07250268757343292 -0.10215791314840317 0.2951545715332031
-0.05697455257177353 0.128008633852005 0.18995621800422668
-0.11920386552810669 0.005438889376819134 0.011402377858757973
0.06516443192958832 -0.10694466531276703 -0.06127607449889183
0.08382447808980942 -0.05758828669786453 -0.13910968601703644
-0.047605738043785095 0.08233512938022614 -0.3567153811454773
-0.004146698862314224 -0.10825803875923157 0.02150646597146988
-0.07237781584262848 0.020499911159276962 -0.26728737354278564
0.08900246769189835 -0.07984016835689545 -0.004613441415131092
-0.02322993054986 0.07061563432216644 -0.40449172258377075
-0.08161824941635132 -0.07041803747415543 0.21563294529914856
-0.12523333728313446 0.08089492470026016 -0.029215045273303986
-0.05936270207166672 0.11638595908880234 -0.1281185895204544
-0.0465531088411808 -0.10372745245695114 0.3285326361656189
-0.07383303344249725 0.11855301260948181 -0.12267787009477615
-0.08597348630428314 0.11558203399181366 -0.00708327442407608
0.04541397467255592 -0.09264865517616272 -0.010689012706279755
-0.044819824397563934 0.13174276053905487 0.23772765696048737
0.06535632163286209 -0.09305903315544128 -0.10949394851922989
0.05477840453386307 -0.10635173320770264 -0.037372834980487823
-0.13323980569839478 0.050444163382053375 -0.04776693880558014
-0.09758536517620087 0.08040280640125275 0.26317256689071655
0.0630347952246666 -0.0939442366361618 0.13680848479270935
-0.004723179154098034 -0.10748416930437088 -0.0978935956954956
-0.12565645575523376 0.008453876711428165 0.011963745579123497
-0.13179561495780945 0.019391093403100967 -0.008068352937698364
-0.13013827800750732 0.034195203334093094 0.04455379396677017
0.014107715338468552 -0.10775217413902283 0.23217932879924774
0.06919792294502258 -0.09342445433139801 0.05983147397637367
0.0679735392332077 -0.09310492128133774 0.10278302431106567
0.04500030726194382 -0.09186077117919922 -0.01369335688650608
0.03430889919400215 -0.04806572198867798 -0.21206516027450562
0.07933449745178223 -0.08934321999549866 0.07477286458015442
-0.10584516823291779 -0.02542911469936371 0.06406118720769882
0.053480543196201324 -0.036754678934812546 -0.25481534004211426
-0.0279002133756876 -0.0969904363155365 0.18216350674629211
0.06917016953229904 -0.09371574223041534 0.058607421815395355
0.012132465839385986 -0.10603764653205872 -0.04609236866235733
-0.09643808007240295 0.0910688191652298 0.105715312063694
-0.03634496405720711 -0.09994310885667801 -0.05595362186431885
0.0996386781334877 -0.08873448520898819 0.007906880229711533
0.12110628187656403 -0.06069641932845116 0.008726805448532104
0.06573175638914108 -0.09937846660614014 0.18234020471572876
-0.05469868332147598 0.0865180715918541 -0.18652579188346863
0.00024019181728363037 -0.1057148277759552 -0.11335419863462448
0.04264150187373161 -0.10657574236392975 -0.031805917620658875
-0.031922053545713425 -0.09343364834785461 0.15523993968963623
-0.09789527952671051 0.0811418741941452 0.1419796645641327
-0.02909146621823311 -0.04265802353620529 -0.17231759428977966
-0.0672200545668602 -0.0013326425105333328 -0.1591719090938568
0.06133906543254852 -0.10123182833194733 0.14865171909332275
0.0707847848534584 -0.0941484272480011 0.06001145392656326
-0.05667727813124657 0.14829374849796295 -0.0220712348818779
0.12150853872299194 -0.04900569096207619 0.00933769065886736
-0.017072739079594612 -0.09792107343673706 0.03334992378950119
0.05373070016503334 -0.1075490415096283 -0.06350037455558777
-0.08740979433059692 0.10141697525978088 0.2228054404258728
-0.08656905591487885 0.10272017121315002 0.07486770302057266
0.12842044234275818 -0.043279536068439484 0.05454545468091965
0.05782194435596466 -0.018160685896873474 -0.35701823234558105
-0.11411264538764954 -0.024386951699852943 0.150669127702713
0.04136732220649719 -0.10073420405387878 0.1220332458615303
0.10131452977657318 -0.07093314826488495 -0.014158261939883232
-0.058080874383449554 0.07994860410690308 -0.15322889387607574
-0.02906511165201664 -0.11437775194644928 0.40781986713409424
-0.0784694254398346 -0.062107495963573456 0.10644133388996124
0.05600923299789429 -0.10846073925495148 -0.03904975950717926
-0.03558685630559921 0.11540433764457703 -0.15702982246875763
-0.043633244931697845 -0.09483878314495087 0.27487704157829285
-0.09505069255828857 0.08411553502082825 0.13465164601802826
0.04746514931321144 -0.08960764110088348 -0.007796227000653744
0.07877254486083984 -0.09320688247680664 0.13530999422073364
0.11022414267063141 -0.08335070312023163 -0.05805054306983948
-0.09213351458311081 0.0953439325094223 0.1500958800315857
-0.05254707857966423 -0.028424367308616638 -0.17942693829536438
0.034267839044332504 -0.10901648551225662 0.2459610253572464
0.10343780368566513 -0.0894453302025795 -0.062355346977710724
-0.09702934324741364 -0.04715621471405029 0.18208742141723633
-0.12430259585380554 0.06655437499284744 0.006593442056328058
0.10836805403232574 -0.07004469633102417 0.12161961197853088
0.11537837982177734 -0.0593147799372673 0.15176770091056824
-0.13407334685325623 0.020715564489364624 -0.005876941606402397
-0.07794614881277084 0.1359720379114151 -0.09932295233011246
0.12269327789545059 -0.058642443269491196 0.017555315047502518
-0.13234424591064453 0.022040655836462975 -0.00620777253061533
-0.06106944382190704 0.12079282850027084 0.2584574818611145
0.06054504215717316 -0.06468524038791656 -0.14889827370643616
0.1127375140786171 -0.0732625350356102 -0.08872203528881073
-0.10001125931739807 0.0727967619895935 0.2853258550167084
0.057200659066438675 -0.10982368886470795 -0.06578443199396133
0.0833251029253006 -0.08922191709280014 0.19634142518043518
0.09668374061584473 -0.07251754403114319 -0.014355151914060116
-0.070731021463871 0.11350569128990173 0.024946928024291992
-0.06253772228956223 -0.09032931923866272 -0.0862899199128151
0.10977020114660263 -0.07271735370159149 0.23258259892463684
-0.13399794697761536 0.03227308765053749 0.04897891730070114
-0.10320334881544113 0.08141285926103592 0.08390964567661285
0.08638431131839752 -0.07784252613782883 0.009052162989974022
-0.01999753899872303 -0.09892018884420395 0.10396542400121689
-0.021735455840826035 -0.10422055423259735 0.2671087980270386
-0.1268274337053299 0.0679187923669815 0.025015652179718018
-0.11649830639362335 0.0412626713514328 0.09411311149597168
0.1283310353755951 -0.04892517626285553 0.176972433924675
0.0657777413725853 -0.051079098135232925 -0.15232373774051666
0.12906017899513245 -0.048426005989313126 0.010956916026771069
0.011011328548192978 -0.08451936393976212 -0.13283033668994904
-0.10202983021736145 0.07052482664585114 0.16982276737689972
-0.1335926204919815 0.0748799592256546 -0.055177878588438034
-0.013094652444124222 -0.04041639342904091 -0.34999021887779236
0.040682218968868256 -0.10500913113355637 0.013944459147751331
0.0258297361433506 -0.05280314013361931 -0.28546470403671265
0.058497704565525055 -0.10783639550209045 -0.038684386759996414
-0.06155763193964958 -0.08418060839176178 0.10959212481975555
-0.04592782258987427 -0.04612525552511215 -0.14543494582176208
-0.06818192452192307 -0.002677563577890396 -0.19651955366134644
0.06708187609910965 -0.09139388799667358 -0.014935982413589954
0.019660022109746933 -0.049219973385334015 -0.23891165852546692
0.06639590859413147 -0.09413192421197891 0.11510851979255676
-0.12024900317192078 0.011790216900408268 0.02610214799642563
0.07675638794898987 -0.09094076603651047 0.13298621773719788
0.0433073490858078 -0.10061794519424438 0.1211848258972168
-0.03217937424778938 -0.0983605682849884 0.07459831237792969
-0.1137561947107315 0.0214221253991127 0.2662992477416992
0.07531492412090302 -0.022329462692141533 -0.199855238199234
-0.07209252566099167 0.10550893843173981 0.3620433807373047
-0.11874741315841675 -0.007902557030320168 0.0917583703994751
-0.07624685764312744 -0.07019844651222229 0.19155821204185486
0.11239834874868393 -0.0813717171549797 0.1965145766735077
-0.07889364659786224 0.04279386252164841 -0.34464263916015625
-0.12037977576255798 0.021664081141352654 0.09872925281524658
0.06353317201137543 -0.09533654153347015 -0.10808700323104858
-0.1274663656949997 0.0765848308801651 -0.028562217950820923
-0.0819873958826065 0.09372269362211227 0.2814188003540039
-0.10604546964168549 0.08061041682958603 0.007696800399571657
