-0.06932224333286285 -0.10082116723060608 0.08757065236568451
0.08913548290729523 -0.09394313395023346 0.2053302377462387
0.027436424046754837 -0.12465161830186844 0.014170445501804352
0.07496677339076996 -0.07851719856262207 0.011292872950434685
-0.08008036017417908 0.10970418155193329 0.059645555913448334
-0.08731156587600708 -0.06495486199855804 0.04799458384513855
-0.12141299247741699 0.013216139748692513 0.012620377354323864
-0.07197333127260208 0.0805470198392868 -0.20182234048843384
-0.09304545819759369 -0.054733458906412125 0.05792076885700226
-0.04104608669877052 -0.11484753340482712 0.02277921512722969
0.026412732899188995 -0.09926185756921768 0.09403980523347855
-0.07854212820529938 0.07233130931854248 -0.3269815742969513
-0.007024477235972881 -0.1058988869190216 -0.13757553696632385
0.03861614316701889 -0.08581815659999847 0.08195900171995163
-0.01155894435942173 -0.10868258029222488 0.1323184072971344
-0.07800057530403137 -0.07821515947580338 0.18461593985557556
-0.10096736252307892 0.0790601521730423 0.005643741227686405
0.0763540118932724 -0.10303620994091034 -0.0293141957372427
-0.03415176644921303 0.13302096724510193 -0.03565870225429535
0.050613872706890106 0.0012012869119644165 -0.5597883462905884
-0.0637371614575386 -0.027126673609018326 -0.2046290785074234
0.013177392072975636 0.06284704804420471 -0.41080695390701294
-0.07122110575437546 -0.06858403235673904 -0.1880643665790558
-0.123551145195961 0.06239749491214752 0.30487504601478577
0.06507094204425812 -0.09109499305486679 -0.007824555970728397
-0.10952240228652954 0.10015545785427094 0.38108009099960327
0.1404554843902588 -0.0729946494102478 0.332802414894104
-0.12689828872680664 0.053455986082553864 0.01268778182566166
-0.11562713980674744 -0.02744877152144909 0.382233589887619
0.13984331488609314 -0.033593226224184036 -0.0943853035569191
0.006152798421680927 -0.1081165000796318 0.28180915117263794
0.04786033183336258 -0.11484458297491074 0.30969470739364624
0.09794223308563232 -0.06868100166320801 -0.13787959516048431
0.08726589381694794 -0.09323196858167648 -0.11199921369552612
-0.06348387151956558 0.12117935717105865 0.1322784572839737
-0.08162767440080643 0.011184407398104668 -0.31357890367507935
0.06408627331256866 -0.09328138828277588 0.043764371424913406
-0.1282433569431305 -0.028152484446763992 -0.13404597342014313
0.03760728985071182 -0.11181974411010742 0.022834651172161102
0.06658641248941422 -0.09026536345481873 -0.3289576470851898
-0.1149769201874733 -0.028562376275658607 0.12704472243785858
-0.11445517838001251 -0.03088299185037613 0.06693563610315323
-0.12310893088579178 -0.004328499548137188 -0.012554962188005447
-0.06612855195999146 -0.04733432084321976 -0.31581002473831177
0.012482035905122757 -0.10366308689117432 0.011411691084504128
0.06679187715053558 -0.09137262403964996 -0.0011223484762012959
-0.07555942237377167 0.0878787487745285 0.036891575902700424
0.042470403015613556 -0.10224728286266327 -0.13881348073482513
-0.07249292731285095 0.13777172565460205 0.14933383464813232
0.07333005964756012 -0.10692466795444489 -0.020751969888806343
-0.11928810179233551 -0.021530630066990852 0.04877762496471405
-0.06787700951099396 0.14789599180221558 0.21647274494171143
0.10464496910572052 -0.06242828071117401 0.025641797110438347
-0.12469048798084259 -0.0032603575382381678 0.3763766288757324
0.06808058172464371 -0.10528916120529175 -0.03524539992213249
-0.039912328124046326 0.11112434417009354 0.24519914388656616
0.10616199672222137 -0.0708492249250412 -0.09245899319648743
0.054259300231933594 -0.11560643464326859 0.4040646553039551
-0.01927109621465206 -0.09720078110694885 0.20372314751148224
0.10597535967826843 -0.0648437961935997 -0.14100083708763123
-0.03102695941925049 -0.06394888460636139 -0.3609655797481537
0.06316700577735901 -0.09394697844982147 -0.010885091498494148
0.050930656492710114 -0.09789901226758957 0.0013214373029768467
-0.036739226430654526 0.09810079634189606 -0.3562096655368805
0.13068772852420807 -0.06053978204727173 0.3137894570827484
-0.07654494047164917 0.10481336712837219 0.14776937663555145
-0.08306600898504257 0.11632391065359116 -0.13021716475486755
0.05337551608681679 -0.09886890649795532 -0.0055574532598257065
0.0674777552485466 -0.09629729390144348 0.059314750134944916
-0.11293156445026398 0.05447399616241455 0.018269885331392288
-0.04992561787366867 -0.0997418463230133 -0.18222591280937195
0.041307009756565094 -0.10610215365886688 -0.04243392497301102
-0.013138923794031143 -0.11003555357456207 -0.17145943641662598
-0.11359696090221405 0.07960137724876404 0.09219245612621307
-0.1140572801232338 -0.024590279906988144 0.07248616218566895
-0.11953015625476837 0.03030720166862011 0.10250161588191986
0.053279098123311996 -0.0869203507900238 0.003924357704818249
-0.005795115604996681 -0.10700670629739761 0.03559606522321701
-0.10241886973381042 0.04777560755610466 0.21138733625411987
-0.11589637398719788 0.055546991527080536 0.1989390105009079
0.10991781204938889 -0.06500127166509628 -0.0009193588048219681
0.03932834416627884 -0.05678178369998932 -0.2372187376022339
0.0014852086314931512 -0.10578105598688126 0.021886754781007767
0.039590101689100266 -0.10439759492874146 -0.26209551095962524
0.10592983663082123 -0.06610198318958282 0.004871950950473547
-0.11881206929683685 -0.04024142771959305 0.10860458761453629
-0.02362385019659996 -0.09458955377340317 0.014509521424770355
-0.09843704104423523 0.0806351751089096 0.2162274420261383
0.0917833149433136 -0.07598864287137985 0.3202480673789978
0.09530682861804962 -0.07323504984378815 -0.030792810022830963
0.08604006469249725 -0.08587253093719482 -0.01750028505921364
-0.1213708370923996 0.046561118215322495 0.007330327294766903
0.10883768647909164 -0.04776792973279953 -0.15105953812599182
-0.05714718997478485 0.12317389249801636 0.4214720129966736
0.04491791874170303 -0.09778650104999542 0.21675506234169006
-0.05027944594621658 -0.09156029671430588 -0.04899607598781586
-0.06966884434223175 0.10154049098491669 -0.1811237633228302
-0.06834989786148071 -0.09077808260917664 -0.020243586972355843
-0.11612097173929214 0.06553644686937332 0.13848035037517548
-0.06821039319038391 0.12093667685985565 0.03584353253245354
-0.017048843204975128 -0.09981800615787506 0.02053649164736271
0.06904153525829315 -0.09206433594226837 -0.020651575177907944
0.10513393580913544 -0.0572320893406868 -0.0018600113689899445
0.01886609196662903 -0.11285935342311859 -0.009865278378129005
0.04208359867334366 -0.09170612692832947 0.006373024545609951
-0.12192874401807785 0.02290627546608448 0.09960800409317017
0.10544019192457199 -0.06846543401479721 -0.05678369849920273
0.036991529166698456 -0.1035696268081665 -0.04380086436867714
-0.10279595851898193 0.08324176073074341 0.1151861846446991
0.050374776124954224 -0.09983088076114655 0.014737492427229881
-0.039970021694898605 -0.08505818247795105 -0.05130445957183838
0.10889619588851929 -0.05806083232164383 -0.0019933078438043594
0.04216381907463074 -0.1122266948223114 -0.03706572204828262
-0.12019315361976624 0.015695540234446526 0.027279604226350784
-0.02231171727180481 -0.11773529648780823 0.19522473216056824
0.12208820879459381 -0.04754389822483063 0.005667261779308319
-0.10754083842039108 0.08634389191865921 -0.14370621740818024
-0.0785839855670929 -0.06609290838241577 0.05687354505062103
0.11789441853761673 -0.05564313009381294 -0.01275116577744484
0.10916754603385925 -0.062452130019664764 0.0005138590931892395
0.09331498295068741 -0.08186419308185577 -0.04532299190759659
0.09353853762149811 -0.07173152267932892 0.22096580266952515
0.029255494475364685 -0.11343106627464294 -0.18244588375091553
0.05199042707681656 -0.0940619558095932 0.007190690375864506
-0.1039467453956604 0.10946132242679596 0.3259064555168152
0.06798109412193298 -0.043043605983257294 -0.34859153628349304
0.04598333314061165 -0.09467734396457672 -0.007262049242854118
-0.050852082669734955 -0.034449562430381775 -0.0304579958319664
0.044780269265174866 -0.11086684465408325 -0.13021036982536316
0.0445660799741745 -0.10592032968997955 -0.03394506871700287
-0.1263211965560913 0.0353255458176136 0.060819536447525024
-0.10620752722024918 0.09790655970573425 0.11756637692451477
-0.11625388264656067 0.05876840278506279 0.2606337368488312
-0.05145170912146568 -0.09046099334955215 -0.051352981477975845
-0.1355612874031067 0.045691654086112976 -0.06383630633354187
0.05687215179204941 -0.11309897899627686 -0.11844232678413391
-0.1275806427001953 0.010078661143779755 0.005831301212310791
0.02795601077377796 -0.11363701522350311 0.21883130073547363
-0.1307631880044937 0.023053310811519623 0.0019478462636470795
-0.0732392892241478 0.13640938699245453 -0.12585073709487915
0.09906597435474396 -0.07478685677051544 0.032181791961193085
-0.10133877396583557 -0.05890955403447151 0.01825524866580963
0.11011583358049393 -0.10089293122291565 -0.28512683510780334
-0.09003344178199768 0.04902080446481705 -0.19730789959430695
0.10417428612709045 -0.06551803648471832 -0.06438775360584259
0.11176781356334686 -0.07543793320655823 -0.17499060928821564
0.08491145074367523 -0.09731581807136536 0.15406560897827148
-0.0386238768696785 -0.043548714369535446 -0.3482688069343567
-0.12230534851551056 0.05355612933635712 0.007311916444450617
-0.086293525993824 -0.06650765985250473 0.049988746643066406
-0.047179099172353745 -0.05677081644535065 0.13909342885017395
-0.004340589512139559 -0.07944796234369278 0.011368942447006702
0.040418434888124466 -0.1252371370792389 0.37834763526916504
-0.11687575280666351 0.07332956790924072 0.013114523142576218
-0.07942932099103928 0.04886043444275856 -0.24547746777534485
0.06741587817668915 -0.09126381576061249 -0.014721235260367393
-0.084967240691185 -0.027335889637470245 -0.11987504363059998
-0.04949070140719414 -0.07707901298999786 -0.26742836833000183
-0.11496476829051971 -0.0039590466767549515 -0.2012256681919098
-0.08477060496807098 -0.06533436477184296 0.05171880125999451
0.10783427953720093 -0.0684753879904747 -0.003322913311421871
0.029678570106625557 -0.11248945444822311 -0.11534033715724945
-0.10728661715984344 0.0338425412774086 0.2352983057498932
0.10544954240322113 -0.06744962185621262 -0.014611092396080494
-0.09021759033203125 -0.04402466118335724 -0.2210054099559784
0.10341810435056686 -0.08984863758087158 -0.07571572810411453
-0.11626332998275757 0.02625116892158985 0.09668487310409546
0.04353518411517143 -0.10078053176403046 -0.014855405315756798
0.04906909540295601 -0.11311699450016022 -0.11368062347173691
-0.11917982250452042 -0.01586710289120674 0.15232262015342712
-0.07638763636350632 0.1269877403974533 0.28716495633125305
0.07676393538713455 -0.09373906254768372 0.05872942879796028
0.012209576554596424 -0.1111953854560852 -0.08181647956371307
0.00872737541794777 -0.05478754639625549 -0.3416846990585327
0.050129570066928864 -0.10827227681875229 -0.04395458847284317
0.10577379167079926 -0.09020738303661346 0.1870998740196228
-0.01957804150879383 -0.10857515782117844 0.036665260791778564
-0.04937143623828888 -0.07000655680894852 -0.10053566098213196
0.14758312702178955 -0.062088049948215485 -0.28064167499542236
-0.12143421173095703 0.011480157263576984 0.008910823613405228
-0.015237283892929554 -0.12029924988746643 0.007992908358573914
0.12693244218826294 -0.022737722843885422 -0.15044072270393372
0.12889476120471954 -0.059639252722263336 0.16883987188339233
-0.1257474422454834 0.02913876622915268 -0.0043494971469044685
-0.08194570243358612 0.11773860454559326 0.38760292530059814
0.10847866535186768 -0.0627393051981926 0.004857086576521397
0.09460770338773727 -0.08566635102033615 0.18298476934432983
-0.017655983567237854 0.04982812702655792 -0.3950912356376648
0.060144923627376556 -0.09525667130947113 0.04298369586467743
0.07732461392879486 -0.09218074381351471 0.13553489744663239
0.11298006772994995 -0.08269649744033813 -0.00450508389621973
0.059198930859565735 -0.09012284129858017 0.11185798794031143
-0.00967850536108017 -0.11634707450866699 -0.09824502468109131
-0.007117308676242828 -0.059551436454057693 -0.28216490149497986
-0.12211139500141144 0.012088216841220856 0.015114427544176579
0.11895811557769775 -0.06778202205896378 -0.11416352540254593
0.11255346983671188 -0.06525571644306183 -0.007187861017882824
0.106425940990448 -0.08284793049097061 0.12440572679042816
-0.03964207321405411 0.1397992968559265 -0.13016203045845032
-0.12308184057474136 0.004943440202623606 0.005000622943043709
-0.05214466154575348 0.11132729053497314 -0.306121826171875
-0.032231397926807404 -0.11244583129882812 -0.05840778350830078
-0.0637936070561409 -0.005161863751709461 -0.2357580065727234
-0.12084008753299713 -0.027454253286123276 0.014152588322758675
0.11245818436145782 -0.05576036125421524 -0.0006530825048685074
-0.11931317299604416 -0.010130713693797588 -0.06637457013130188
-0.1305941343307495 0.02773945778608322 0.022123657166957855
-0.08428996056318283 -0.06854036450386047 -0.1237868070602417
-0.0031399186700582504 -0.12459579855203629 -0.06696963310241699
0.0014432258903980255 -0.09859644621610641 0.13231246173381805
0.015903588384389877 -0.11460402607917786 -0.19371061027050018
-0.08071380853652954 0.04444868862628937 -0.35117125511169434
-0.07708224654197693 0.11933337152004242 -0.006186030805110931
-0.08585160970687866 -0.051234591752290726 -0.19900065660476685
0.024578945711255074 -0.1235862672328949 -0.022331098094582558
-0.12215277552604675 0.07030075788497925 -0.027126800268888474
0.047810882329940796 -0.09087561070919037 0.012166053056716919
0.10256464779376984 -0.0551958829164505 0.004301281645894051
0.04050446301698685 -0.10198397934436798 -0.03610048070549965
-0.12927161157131195 0.03266733139753342 0.048800185322761536
0.09807242453098297 -0.08004654943943024 0.1966003030538559
-0.0936870202422142 0.09323609620332718 0.03926331177353859
-0.06120090186595917 0.08413804322481155 -0.3510647714138031
-0.11387134343385696 0.09007884562015533 0.3557851314544678
-0.10233225673437119 0.08365260064601898 0.07344476133584976
0.09060035645961761 -0.09058022499084473 -0.22904056310653687
-0.09433922171592712 -0.0712028443813324 0.25480201840400696
0.06332671642303467 -0.1020999401807785 0.03889962285757065
-0.05057857558131218 -0.09130366146564484 0.13094833493232727
-0.1336497813463211 0.025521576404571533 -0.031218916177749634
0.06313913315534592 -0.10345359146595001 0.03359071537852287
-0.11422908306121826 -0.01687433011829853 0.05718354508280754
-0.12016237527132034 0.01198432594537735 0.006349422503262758
0.02197490818798542 -0.1255830079317093 -0.1006486788392067
-0.033656030893325806 -0.013910982757806778 -0.4447803795337677
-0.09913145005702972 -0.06497691571712494 -0.10841605812311172
-0.1199427992105484 0.019865773618221283 -0.10407856106758118
-0.05030156672000885 0.13718552887439728 0.19757531583309174
0.09127285331487656 -0.09083321690559387 -0.1636931449174881
-0.09946340322494507 0.10133369266986847 0.19894644618034363
0.046222932636737823 -0.10065405815839767 0.0026668584905564785
-0.08389303088188171 -0.10282161086797714 0.17558440566062927
0.10523225367069244 -0.058343708515167236 -0.0011760499328374863
-0.04143747687339783 0.11363594233989716 -0.2845785319805145
0.042633675038814545 -0.10859286785125732 -0.035260334610939026
0.06626316905021667 -0.09663324058055878 -0.0010078400373458862
0.08818276226520538 -0.09270332753658295 -0.06455506384372711
-0.11874081939458847 0.015242927707731724 0.0320625975728035
0.010390855371952057 -0.10751786828041077 0.10932879149913788
-0.06895149499177933 -0.09876412898302078 -0.11336813122034073
-0.09487217664718628 0.11741836369037628 -0.1145426481962204
0.12157832086086273 -0.06680552661418915 0.010010425001382828
-0.11906249821186066 0.022885413840413094 7.448275573551655e-05
-0.05806228518486023 -0.09109287708997726 -0.04961675405502319
-0.10755162686109543 -0.03981560468673706 0.023700876161456108
-0.11759737879037857 0.025979962199926376 -0.11837001144886017
-0.0015743933618068695 -0.11115553230047226 0.3448980748653412
0.10340145230293274 -0.07872994244098663 -0.03944205865263939
0.052570492029190063 -0.09195262938737869 0.061667799949645996
-0.010045393370091915 -0.11211837828159332 0.16695895791053772
-0.05665019154548645 -0.09788626432418823 -0.04859212413430214
-0.05890877544879913 -0.1058153361082077 0.357399582862854
-0.01881333813071251 -0.051206715404987335 -0.2098102569580078
0.09008572995662689 -0.08218184113502502 -0.13274702429771423
0.06981860101222992 -0.09042414277791977 -0.00917023979127407
-0.06682603061199188 0.13191035389900208 0.24096229672431946
-0.11865474283695221 0.08590078353881836 0.293515145778656
0.12568399310112 -0.061971135437488556 -0.10048305988311768
-0.05319307744503021 0.1349816918373108 0.14033088088035583
0.05025807023048401 -0.09470649063587189 -0.10423287749290466
0.12653343379497528 -0.058634448796510696 -0.3621368408203125
0.09766102582216263 -0.0898495465517044 0.06702655553817749
-0.11468498408794403 0.021366465836763382 0.026411859318614006
-0.004352531861513853 0.08824799954891205 -0.37832963466644287
-0.08743475377559662 0.10483888536691666 0.0751175582408905
-0.005304928869009018 -0.088050976395607 -0.2184545248746872
-0.06093299388885498 -0.09866872429847717 -0.05495293065905571
-0.09343504160642624 0.11216972023248672 0.050412148237228394
0.052653614431619644 -0.11001560091972351 -0.043504856526851654
-0.0912899523973465 -0.06256770342588425 0.0683777928352356
-0.06383128464221954 0.08756309747695923 0.063852958381176
-0.08831550180912018 -0.07414578646421432 -0.01813913881778717
-0.09384678304195404 -0.06428443640470505 -0.10189121961593628
-0.0680045410990715 -0.08676210790872574 -0.03800777345895767
-0.0009590918198227882 -0.11509094387292862 0.06061865761876106
-0.06761809438467026 -0.02832156978547573 -0.3835943937301636
0.10808411240577698 -0.06115143001079559 -0.02702605538070202
-0.0144219184294343 -0.1008935198187828 -0.13796000182628632
-0.026878230273723602 -0.10052309185266495 0.02829884923994541
0.06940837949514389 -0.1001228541135788 0.14208106696605682
-0.008168704807758331 -0.11881598830223083 -0.1637430191040039
-0.09336940199136734 0.0943419560790062 0.02347715012729168
-0.09349305927753448 -0.053322114050388336 -0.00018069520592689514
-0.12137176096439362 -0.012582842260599136 -0.029841957613825798
0.0204470232129097 -0.1120317131280899 -0.03747565299272537
0.0013096081092953682 0.044898632913827896 -0.5142391920089722
-0.04482031613588333 0.0386265367269516 -0.3788148760795593
0.0972466766834259 -0.09360480308532715 -0.07314170897006989
0.016090285032987595 -0.12286907434463501 -0.11734308302402496
-0.1305992752313614 0.010907553136348724 0.007810402661561966
-0.11727693676948547 0.06075945496559143 0.007563747465610504
-0.12482134252786636 0.062175095081329346 0.041550133377313614
-0.11336693167686462 0.08119210600852966 0.22662284970283508
-0.014338639564812183 -0.10082175582647324 -0.21702134609222412
0.03706417977809906 -0.11197243630886078 0.24007169902324677
-0.06934088468551636 0.12374015152454376 0.1811225414276123
0.0038817282766103745 -0.09470584243535995 0.06243110075592995
0.11356092989444733 -0.05954927206039429 -0.04373002424836159
-0.07734344899654388 -0.005940311588346958 -0.3237602412700653
-0.1203397586941719 -0.020324956625699997 0.07510096579790115
0.0513882040977478 -0.09273276478052139 0.0110657112672925
-0.035170868039131165 0.11593914031982422 -0.1450902223587036
-0.04777895659208298 -0.0316261351108551 -0.2635142207145691
-0.08597291260957718 0.03542589396238327 -0.1622118502855301
-0.0702383816242218 0.13438498973846436 0.02605847641825676
-0.07429585605859756 0.10918606072664261 0.02533750608563423
-0.009072262793779373 -0.10463270545005798 -0.20171140134334564
-0.10468295216560364 0.08582686632871628 0.2730731666088104
0.04660087823867798 -0.049783408641815186 -0.407974511384964
-0.10335014760494232 0.028816599398851395 0.1588536649942398
-0.08323660492897034 -0.0956738144159317 0.06651289761066437
-0.04083898290991783 0.1344103068113327 -0.21030284464359283
-0.07211435586214066 -0.08924780040979385 0.4161485433578491
0.03459151089191437 -0.11000996083021164 0.1045137345790863
-0.10023248195648193 -0.05552371218800545 0.11479966342449188
-0.0701541006565094 0.15140819549560547 -0.0908980667591095
0.07100744545459747 -0.1080809086561203 0.2969459593296051
-0.12878048419952393 0.018804991617798805 0.0023775752633810043
0.10968301445245743 -0.06505087018013 -0.002345483750104904
-0.015557698905467987 -0.09979621320962906 0.3975262939929962
0.03855877369642258 -0.10092972218990326 -0.12308412045240402
-0.11887980997562408 0.055045537650585175 0.06177528202533722
0.09175410866737366 -0.08215072751045227 -0.15578784048557281
0.023469939827919006 -0.09081462770700455 -0.18233658373355865
0.06707514822483063 -0.09677042067050934 0.10299843549728394
0.017572782933712006 -0.11656127870082855 -0.10582354664802551
-0.1020561009645462 0.014711828902363777 -0.10589291155338287
-0.11499924957752228 0.014565513469278812 0.12815842032432556
0.009552620351314545 -0.1072712317109108 -0.27290666103363037
-0.08876770734786987 0.06905340403318405 0.05472898483276367
-0.0249008871614933 -0.10805898159742355 0.07844851911067963
0.07037398964166641 -0.08695288002490997 0.175404891371727
0.05006936192512512 -0.10817352682352066 -0.03638775646686554
-0.10696189105510712 0.0774625763297081 0.1628909409046173
-0.0799178034067154 0.09163901209831238 0.0419551320374012
-0.09915745258331299 -0.02700749970972538 -0.12893594801425934
-0.07739810645580292 -0.07495277374982834 0.0462971106171608
-0.08797679096460342 0.07552789151668549 0.10407032072544098
-0.08442288637161255 0.007282629609107971 -0.18923670053482056
-0.12795035541057587 0.0043356711976230145 0.036998450756073
-0.1095874160528183 -0.023783700540661812 0.07033407688140869
-0.05833422392606735 0.10469841212034225 -0.2001655250787735
0.10657311230897903 -0.06028583273291588 0.09646821022033691
0.11301246285438538 -0.06003665179014206 -0.05427708849310875
-0.126930370926857 0.02286592870950699 0.005026079714298248
0.03874090313911438 -0.1132301613688469 -0.03160636126995087
0.018078386783599854 -0.12533743679523468 -0.00821838341653347
0.06998096406459808 -0.0884130597114563 0.08977712690830231
-0.10441675037145615 0.030022744089365005 0.09898026287555695
-0.07549694925546646 0.08073904365301132 -0.27994126081466675
-0.1162591204047203 -0.047169823199510574 0.19035513699054718
0.04271423816680908 -0.10285745561122894 -0.0389043353497982
0.11535988748073578 -0.07795575261116028 0.39731937646865845
-0.0950174629688263 0.07993592321872711 0.1280614733695984
0.05492788553237915 -0.1010420173406601 -0.19210155308246613
0.1073673814535141 -0.06427908688783646 -0.003262965939939022
-0.11286831647157669 -0.03942005708813667 0.29250624775886536
-0.08454418927431107 -0.06758875399827957 0.013110173866152763
-0.050446610897779465 -0.10031634569168091 -0.044698894023895264
0.05468303710222244 -0.10493108630180359 0.020038314163684845
0.03767568990588188 -0.11344897747039795 0.10333520174026489
-0.03438569977879524 -0.10602783411741257 0.30389559268951416
-0.09611804783344269 -0.060280270874500275 -0.04524757340550423
0.07182087749242783 -0.10301710665225983 -0.02540796436369419
-0.12419667840003967 0.018269916996359825 0.02288580685853958
-0.11994630843400955 0.004547523334622383 0.02030712366104126
0.11037340760231018 -0.07256666570901871 3.943033516407013e-05
-0.12081044912338257 0.0427434928715229 0.0980810672044754
0.07195558398962021 -0.09605906158685684 0.10018692910671234
0.015667177736759186 -0.09844435751438141 -0.11983662098646164
-0.12928158044815063 0.029214462265372276 0.39166975021362305
-0.08273584395647049 0.06470198184251785 0.07809462398290634
0.05763479322195053 -0.09393291175365448 -0.009920851327478886
-0.11533135175704956 -0.017424486577510834 0.06180950254201889
0.009202005341649055 -0.120855912566185 0.017462007701396942
-0.0812252014875412 -0.07372891902923584 0.2164967656135559
0.08322650194168091 -0.07508844882249832 -0.022516194730997086
0.03948000445961952 -0.10227245837450027 -0.0332878902554512
0.03726102411746979 -0.032697584480047226 -0.5175540447235107
0.10381119698286057 -0.06332500278949738 -0.006161422003060579
0.0035471878945827484 -0.1185518279671669 -0.03663267195224762
-0.06291796267032623 0.1250816136598587 -0.13031446933746338
-0.07439547777175903 0.10508844256401062 0.13033396005630493
-0.04270317032933235 0.14009889960289001 -0.039352212101221085
-0.09338585287332535 -0.07647592574357986 0.15442319214344025
-0.007688011974096298 -0.10140518844127655 -0.15713894367218018
-0.03723578527569771 0.10896532237529755 -0.1962466537952423
0.05357494205236435 -0.09186562150716782 0.00935469288378954
-0.10751945525407791 0.018181800842285156 0.005786564201116562
0.12448669970035553 -0.04649531841278076 0.010544880293309689
-0.11692222207784653 0.054061159491539 0.015808342024683952
0.0665527731180191 -0.08680075407028198 -0.007863983511924744
0.10706460475921631 -0.06536641716957092 -0.0037443668115884066
-0.04788884520530701 0.1311710774898529 0.09860612452030182
-0.12343129515647888 0.011507226154208183 0.016881167888641357
-0.07563306391239166 -0.005050169304013252 -0.15449035167694092
0.11800549924373627 -0.07457751035690308 -0.11150608956813812
0.048363953828811646 -0.1019613966345787 -0.04279876500368118
-0.03601612523198128 0.12401703000068665 0.01912188157439232
-0.03720375522971153 -0.09012070298194885 0.13166049122810364
-0.08684568107128143 0.102943554520607 0.07668516039848328
-0.09394831955432892 0.07652920484542847 -0.13112832605838776
0.07476356625556946 -0.0014355536550283432 -0.41206854581832886
0.007476258557289839 -0.13763616979122162 0.4080929160118103
-0.09296616166830063 0.02008941024541855 -0.25986582040786743
-0.07649815082550049 -0.08297230303287506 -0.17642804980278015
-0.08167712390422821 -0.06587164103984833 0.11219461262226105
-0.025703370571136475 -0.11894075572490692 -0.028990503400564194
-0.04313884302973747 -0.09176547825336456 -0.025580236688256264
0.0937347486615181 -0.06311243772506714 -0.3901124596595764
-0.06354685872793198 -0.07961440086364746 0.20126497745513916
-0.09260644763708115 0.14087718725204468 0.3554958999156952
0.016211865469813347 -0.08787497878074646 -0.14350205659866333
0.016419697552919388 -0.059350915253162384 -0.19153736531734467
-0.01103292964398861 -0.08535918593406677 -0.2691555321216583
0.09480477124452591 -0.07329966127872467 -0.012931538745760918
0.1037047728896141 -0.08513633906841278 0.4328465163707733
-0.07403895258903503 0.02311883121728897 -0.11510606855154037
-0.11326324194669724 -0.020887330174446106 0.04575022682547569
0.0021955780684947968 -0.11789587885141373 -0.04710967093706131
-0.11543810367584229 0.05305083096027374 0.007449230179190636
-0.01921701803803444 -0.08827082812786102 0.04805482178926468
-0.04789012670516968 -0.10317791998386383 -0.016408342868089676
-0.12121348083019257 0.011125938966870308 0.010218590497970581
0.08482088893651962 -0.09178216755390167 -0.11287646740674973
0.0659325122833252 -0.09805814921855927 0.031684670597314835
0.037595830857753754 -0.10669025778770447 -0.03527817875146866
-0.07337044179439545 -0.08808089047670364 -0.10723486542701721
-0.12191186845302582 0.010634498670697212 0.010236913338303566
-0.10616448521614075 0.0855298787355423 0.14608222246170044
-0.11963677406311035 0.027593929320573807 0.09612105041742325
0.0019584838300943375 -0.10280357301235199 -0.303009569644928
0.04796461760997772 -0.09756573289632797 -0.006768385414034128
0.0545940138399601 -0.08440376818180084 0.006752201355993748
-0.05120359733700752 -0.010121634230017662 -0.3488123416900635
0.09316891431808472 -0.05663358420133591 0.3866550922393799
-0.11231659352779388 0.059166859835386276 -0.009127316065132618
0.04280903562903404 -0.10736727714538574 0.039876796305179596
-0.08904845267534256 0.13517548143863678 0.03016349859535694
-0.11607733368873596 0.07829185575246811 0.23558813333511353
0.0644809678196907 -0.11478022485971451 -0.07169748842716217
-0.10122933983802795 0.09614904224872589 0.303922563791275
-0.12608948349952698 0.032914236187934875 0.009091656655073166
0.04044395685195923 -0.1196012794971466 -0.0488460399210453
-0.09748952090740204 0.07931607216596603 0.17180535197257996
0.11841847747564316 -0.05837561935186386 -0.002313898177817464
-0.13442474603652954 0.004232659935951233 0.422291100025177
0.03507360816001892 -0.10295380651950836 0.016822462901473045
-0.07397124171257019 0.1208299919962883 0.06506139039993286
-0.08361262083053589 -0.06358969211578369 0.04193827882409096
-0.059999145567417145 0.10259132832288742 -0.1520194560289383
-0.09448982030153275 -0.009916197508573532 -0.20525886118412018
0.007214687764644623 -0.1151120588183403 0.29607534408569336
0.11760751903057098 -0.054305896162986755 0.047261402010917664
-0.10586203634738922 -0.04510859400033951 0.024582479149103165
-0.12450773268938065 0.021531881764531136 0.0005047284066677094
0.11769668757915497 -0.07070654630661011 0.017952872440218925
-0.11193196475505829 0.0144241563975811 0.012003276497125626
0.08931916207075119 -0.07177727669477463 -0.026840761303901672
-0.09142428636550903 -0.09442146122455597 -0.07773815095424652
-0.12936070561408997 -0.02507246658205986 -0.07593411207199097
0.03930620849132538 -0.09166182577610016 -0.3503086566925049
0.059301987290382385 -0.09540991485118866 -0.007071654312312603
0.0017833271995186806 -0.11982780694961548 -0.06722991168498993
-0.11897692084312439 0.06334982812404633 -0.05169593542814255
0.10149376094341278 -0.05820973217487335 0.07526377588510513
-0.12429484724998474 -0.021041778847575188 0.008134245872497559
0.10863667726516724 -0.04774633049964905 -0.17848442494869232
0.02468879148364067 -0.058111898601055145 -0.2941107749938965
-0.05431130528450012 -0.04059140384197235 -0.22679239511489868
-0.12315648794174194 -0.04564068838953972 -0.06387201696634293
-0.0451711043715477 -0.05744289606809616 -0.15862257778644562
-0.08281847834587097 -0.06215956434607506 -0.0359874852001667
0.09336204081773758 -0.08046472817659378 -0.3281787037849426
0.06201102212071419 -0.09965316206216812 0.0434659868478775
0.08081544190645218 -0.031832750886678696 -0.2282201051712036
-0.10664723068475723 0.0762842446565628 0.021806728094816208
-0.12198013067245483 0.007917812094092369 0.006847180426120758
-0.1218683123588562 0.017937153577804565 0.00920022837817669
-0.05829986184835434 0.05539171025156975 -0.03806231543421745
-0.054951634258031845 0.11143333464860916 -0.21435169875621796
0.02694982849061489 -0.11176945269107819 -0.038452181965112686
-0.11931563168764114 0.011047429405152798 0.009618597105145454
0.08739109337329865 -0.09365434944629669 0.15767693519592285
-0.07961751520633698 -0.08890864253044128 -0.004627563059329987
-0.0965525358915329 -0.07259605079889297 0.3004065752029419
-0.06580975651741028 0.1554800420999527 -0.05141156166791916
0.020709645003080368 -0.10417407751083374 0.004702444653958082
0.11197582632303238 -0.06290122121572495 -0.00566510483622551
0.06002632901072502 -0.10250328481197357 0.08946973085403442
0.05382575839757919 -0.10123331844806671 -0.043416790664196014
-0.10929886251688004 0.08911648392677307 0.0003184287343174219
-0.08568044006824493 0.058138951659202576 -0.19619014859199524
-0.05907737463712692 -0.10424666851758957 -0.08344139158725739
-0.11782737821340561 0.025672417134046555 0.09854043275117874
-0.055590443313121796 0.12737391889095306 0.17824727296829224
0.10665032267570496 -0.06491496413946152 0.00038586370646953583
0.12476427853107452 -0.05873001366853714 0.10778199136257172
0.055822692811489105 -0.11039213836193085 -0.040722161531448364
0.062363188713788986 -0.09024742245674133 -0.008917011320590973
-0.09485220909118652 0.08783426880836487 -0.020003600046038628
0.11278925836086273 -0.053430862724781036 0.016023792326450348
0.07699510455131531 -0.09961209446191788 -0.03424501791596413
-0.11634525656700134 0.06295443326234818 0.179557666182518
-0.05026853829622269 -0.059231407940387726 -0.23150339722633362
-0.06569130718708038 0.12369605898857117 0.16712990403175354
-0.13330349326133728 0.02342776209115982 0.04814721643924713
-0.0539318323135376 -0.09106576442718506 0.0811324194073677
0.04463832825422287 -0.09263595193624496 -0.0042591094970703125
0.09378686547279358 -0.09632427245378494 0.34599658846855164
0.05512221157550812 -0.10476872324943542 -0.034813810139894485
0.10890667885541916 -0.061912599951028824 0.003483775071799755
0.11130553483963013 -0.07011767476797104 0.03991204500198364
-0.034433990716934204 -0.08577503263950348 -0.2016652226448059
-0.09503312408924103 -0.014861001633107662 -0.2769796848297119
-0.01765519753098488 -0.11531919240951538 0.24659618735313416
0.09631809592247009 -0.08631104975938797 -0.03805134445428848
0.047655947506427765 -0.08955764770507812 0.04321589693427086
-0.11308396607637405 -0.014155191369354725 0.05881113559007645
-0.08860601484775543 0.11174630373716354 -0.007089299615472555
0.10576336085796356 -0.06622404605150223 0.09685712307691574
-0.06029811128973961 0.1429210752248764 0.2893823981285095
0.050561703741550446 -0.10641656070947647 0.14714179933071136
0.004217609763145447 -0.11140015721321106 -0.12113156914710999
0.08884550631046295 -0.08368564397096634 -0.0098038911819458
-0.12007253617048264 0.05411522835493088 0.01207769475877285
0.08811546862125397 -0.018318984657526016 -0.29097047448158264
0.05411715805530548 -0.10964015126228333 -0.04053974896669388
0.02001267671585083 -0.11467239260673523 0.32045692205429077
-0.12447617948055267 0.006517643108963966 0.0014549912884831429
-0.06396543979644775 0.07677669823169708 0.019926035776734352
-0.10513229668140411 -0.07607698440551758 0.0798191949725151
0.03962750360369682 -0.09589695930480957 -0.01602618396282196
0.01258216705173254 -0.11507369577884674 -0.023826563730835915
0.029741499572992325 -0.10231250524520874 0.0469246581196785
0.05068402737379074 -0.09815776348114014 -0.004375847056508064
-0.025341417640447617 0.12003970146179199 -0.2513605058193207
-0.11851538717746735 -0.013124899938702583 0.3182865381240845
0.04511048644781113 -0.10602197796106339 -0.034319110214710236
0.08894281834363937 -0.08712030947208405 -0.01801285147666931
-0.03349931910634041 -0.11287871748209 -0.14535953104496002
-0.050581999123096466 -0.10029280185699463 -0.05348321795463562
-0.08125296980142593 0.10669424384832382 -0.08007171750068665
-0.09734170138835907 0.07120554894208908 0.18935291469097137
0.10591310262680054 -0.08051222562789917 -0.1171577125787735
0.05535468831658363 -0.11725372821092606 -0.03552348539233208
-0.07672761380672455 0.025996621698141098 0.01069052703678608
0.06539703905582428 -0.09965318441390991 0.12179894745349884
-0.0010833502747118473 -0.10457797348499298 0.22665844857692719
-0.07893617451190948 0.10999559611082077 0.2411087155342102
-0.12506024539470673 0.05096808075904846 -0.12079859524965286
-0.05261552333831787 0.14692136645317078 -0.012962417677044868
-0.061437495052814484 -0.09519640356302261 0.24791085720062256
-0.12349528819322586 0.0688604786992073 0.424612820148468
0.03989872708916664 -0.11004050821065903 -0.03417469933629036
-0.11751575767993927 -0.038081105798482895 -0.03701495751738548
-0.10261593759059906 0.0852547287940979 -0.07100667804479599
0.137184277176857 -0.03726842999458313 0.06514465063810349
-0.04604309797286987 0.13188141584396362 0.016961729153990746
0.06405165791511536 -0.0921371579170227 -0.01460730005055666
0.10882041603326797 -0.08666102588176727 0.21750466525554657
0.09275619685649872 -0.08119944483041763 0.18426518142223358
-0.03520955145359039 -0.12658365070819855 0.30909985303878784
0.04241112992167473 -0.0989982932806015 -0.02774481289088726
-0.027145665138959885 -0.11528410017490387 0.09833434224128723
-0.11343270540237427 -0.013587484136223793 0.05777290463447571
-0.09853754192590714 0.0955745130777359 0.20804470777511597
-0.09253914654254913 -0.06171182170510292 0.08573971688747406
-0.12162698060274124 0.014169886708259583 0.01036122441291809
0.12018890678882599 -0.057657524943351746 -0.004457475617527962
-0.09929844737052917 0.0758761614561081 0.14095313847064972
0.1014888733625412 -0.04942265525460243 -0.27016711235046387
-0.060901448130607605 -0.08929482847452164 -0.06284072995185852
0.08373934775590897 -0.08481275290250778 -0.03151153028011322
0.06938782334327698 -0.09100447595119476 -0.18170253932476044
0.041932351887226105 -0.11960181593894958 0.21645739674568176
0.042800627648830414 -0.10457129776477814 0.40799614787101746
0.0030472688376903534 -0.015175403095781803 -0.4161303639411926
-0.08347952365875244 0.06377638876438141 -0.19458964467048645
-0.12377367913722992 0.01425892859697342 0.019596710801124573
0.03602256998419762 -0.12181498110294342 -0.029659565538167953
-0.10741797089576721 -0.06234725937247276 0.34734630584716797
0.10489427298307419 -0.06350759416818619 0.03845561668276787
-0.07718616724014282 0.09973788261413574 -0.11305592209100723
0.04394835978746414 -0.11379830539226532 0.019986044615507126
0.06253562122583389 -0.1051483228802681 0.041316039860248566
-0.09282279759645462 0.01403890922665596 -0.12957391142845154
-0.0693592056632042 0.10312262177467346 0.025843411684036255
-0.1223554015159607 0.01686924137175083 0.007116448134183884
0.019993986934423447 -0.04046689718961716 -0.4267263114452362
-0.060766398906707764 0.1188448891043663 0.09338981658220291
0.03848448395729065 -0.10380744934082031 -0.03303913772106171
0.06806498020887375 -0.09706656634807587 0.3599717617034912
0.02539939433336258 -0.10071087628602982 -0.03140998259186745
-0.11382661759853363 0.019712403416633606 0.005915436893701553
-0.11897364258766174 -0.030128395184874535 0.25416791439056396
0.040094323456287384 -0.1071084514260292 -0.041803739964962006
-0.11002746224403381 0.06436078995466232 -0.10177173465490341
0.09505429863929749 -0.09579852223396301 -0.11421257257461548
0.0583636499941349 -0.09302512556314468 -0.16933216154575348
0.14634165167808533 -0.018497958779335022 -0.03611905500292778
0.100588858127594 -0.08078734576702118 -0.1250298023223877
-0.12596172094345093 0.014060799032449722 0.12096675485372543
-0.05515523627400398 -0.10044568032026291 0.11683372408151627
-0.12187432497739792 0.0059838853776454926 0.011563984677195549
0.11273746192455292 -0.078584685921669 -0.13863953948020935
0.056755539029836655 -0.09668293595314026 -0.004543360322713852
0.06471441686153412 -0.10136610269546509 -8.32732766866684e-05
-0.09516642987728119 0.05774000659584999 -0.142370343208313
-0.1164102554321289 0.06446077674627304 0.003964951727539301
-0.11658875644207001 0.019769247621297836 0.12627726793289185
-0.09363396465778351 -0.027504630386829376 -0.2611139416694641
0.07137081027030945 -0.10818901658058167 -0.0798158198595047
0.09860776364803314 -0.06724091619253159 0.009340183809399605
0.12332548946142197 -0.03769706189632416 -0.16171231865882874
-0.04698670655488968 0.12367580831050873 0.08307033777236938
0.04395420104265213 -0.10960561782121658 -0.39521050453186035
0.08116109669208527 -0.09783390909433365 -0.03521477431058884
-0.11489271372556686 -0.04573369026184082 -0.16602197289466858
-0.12028847634792328 0.041718196123838425 0.1053471714258194
0.017128000035881996 -0.1040886715054512 -0.030646992847323418
0.09802068769931793 -0.09642110764980316 0.3199005722999573
0.12091103196144104 -0.061278462409973145 0.10144563764333725
-0.1159537062048912 0.06244650483131409 0.16682380437850952
-0.043819308280944824 -0.10094622522592545 -0.07059293985366821
-0.08201407641172409 0.09009964019060135 -0.1516890972852707
-0.0899188369512558 0.11515693366527557 -0.060991592705249786
-0.018755493685603142 -0.10018151998519897 0.03580745682120323
-0.11999944597482681 0.04835304617881775 0.14322391152381897
0.10373435169458389 -0.06334667652845383 -0.0062828995287418365
-0.08439911156892776 -0.03148283064365387 -0.14032816886901855
0.10966964811086655 -0.06082029640674591 -0.010595605708658695
0.0769854262471199 -0.05364640802145004 -0.2098991423845291
0.05345676839351654 -0.08515214174985886 0.3128037452697754
-0.12281495332717896 0.01733238808810711 0.00937933474779129
-0.1257275938987732 0.02168160304427147 0.009601367637515068
0.09571322798728943 -0.08724062889814377 -0.13646714389324188
0.10745755583047867 -0.07450935244560242 -0.11724524199962616
-0.036523863673210144 0.12119370698928833 -0.2936832308769226
0.025452064350247383 -0.11518402397632599 -0.0440698117017746
-0.09171658009290695 0.06724482774734497 -0.24627995491027832
0.04957307502627373 -0.1111503541469574 0.040783558040857315
-0.0686788558959961 0.008209442719817162 -0.36969202756881714
-0.1238492876291275 -0.002545386552810669 0.014748163521289825
-0.08814164996147156 0.10242435336112976 -0.002377048134803772
-0.05765204131603241 0.12317226827144623 -0.09850293397903442
0.030434265732765198 -0.1100788488984108 0.20789436995983124
-0.13134072721004486 0.018307538703083992 -0.148222878575325
-0.06074552237987518 0.0983637273311615 -0.08449874818325043
0.011539692059159279 -0.10991834104061127 -0.025692803785204887
-0.09843424707651138 0.09816440939903259 0.2297963798046112
-0.03251548111438751 -0.10432752966880798 -0.12643173336982727
0.04916732758283615 -0.09399158507585526 -0.006248890422284603
-0.12391190230846405 0.06306984275579453 0.024885976687073708
-0.08014499396085739 0.11324885487556458 0.35250943899154663
0.05615592747926712 -0.09622669965028763 0.04219772666692734
0.03550133854150772 -0.07952480018138885 -0.16975992918014526
-0.12267259508371353 0.012274134904146194 0.006383395753800869
-0.12265798449516296 0.02367103472352028 0.021347584202885628
-0.12232349812984467 0.023508910089731216 0.003956444561481476
0.06751340627670288 -0.10718585550785065 0.17683184146881104
0.07326210290193558 -0.09601802378892899 0.04974563419818878
0.09919396787881851 -0.08019456267356873 0.10955105721950531
0.04223404824733734 -0.10174687206745148 -0.043796855956315994
-0.018834885209798813 -0.09935859590768814 -0.17722055315971375
-0.07960747182369232 0.10266449302434921 0.21565863490104675
-0.1120612770318985 -0.029017910361289978 0.013399703428149223
0.010581906884908676 -0.08977392315864563 -0.3458656072616577
0.0031690928153693676 -0.10229890048503876 0.10198113322257996
-0.05078050121665001 -0.08960039913654327 0.12133695930242538
-0.1278582215309143 0.005777120124548674 -0.051116082817316055
-0.1069362536072731 0.09494668245315552 0.11195270717144012
-0.07584835588932037 -0.09584563970565796 -0.09646254777908325
0.05630400776863098 -0.09458866715431213 -0.008033854886889458
0.11137981712818146 -0.05888781696557999 0.10912490636110306
0.08320372551679611 -0.08523665368556976 0.14483584463596344
-0.04691537469625473 0.11118774861097336 -0.20260688662528992
0.04970762878656387 -0.11052565276622772 -0.15690934658050537
0.06262875348329544 -0.09783042967319489 -0.06269802153110504
-0.013729050755500793 -0.10779431462287903 0.09434565901756287
-0.12039799988269806 0.008281756192445755 0.0874195545911789
0.052607595920562744 -0.053556300699710846 -0.3073171377182007
-0.09545598924160004 0.06326548010110855 -0.28368377685546875
0.02131068706512451 -0.11034442484378815 0.14232715964317322
0.07826393842697144 -0.07909929752349854 0.052865803241729736
-0.08947069942951202 0.022610675543546677 0.12485805153846741
0.11358188092708588 -0.06468214094638824 0.028886791318655014
-0.024410201236605644 -0.09528949856758118 -0.05074527859687805
0.01691102609038353 -0.10592138767242432 0.0011423402465879917
-0.10282694548368454 0.07919628918170929 0.20335742831230164
-0.1254805028438568 0.024601249024271965 0.09574031829833984
0.10437431931495667 -0.06763435900211334 0.08935076743364334
0.06187495216727257 -0.02466106414794922 -0.36318811774253845
-0.12266707420349121 0.01819968782365322 0.28122514486312866
0.0644344687461853 -0.10741408914327621 0.27760079503059387
0.0457674115896225 -0.11679842323064804 -0.04102977365255356
-0.08596187829971313 0.06600259244441986 -0.17094101011753082
-0.031001105904579163 -0.10580034554004669 0.4166146516799927
-0.11792953312397003 -0.025682777166366577 0.1645052582025528
0.06609765440225601 -0.09305848181247711 -0.015065130777657032
-0.06812147796154022 0.11977539956569672 -0.2551247775554657
-0.039108678698539734 -0.09225673973560333 0.13688546419143677
-0.0731540247797966 0.11460990458726883 -0.025346964597702026
0.03866434842348099 -0.10306134819984436 0.050741858780384064
0.03333495929837227 -0.1150984838604927 0.05541934818029404
0.06717337667942047 -0.0964907556772232 -0.013579921796917915
-0.1200142651796341 0.06486667692661285 0.030090458691120148
-0.08901865780353546 0.10858392715454102 -0.12544766068458557
0.029517821967601776 -0.10636172443628311 0.20420429110527039
0.024416416883468628 -0.1167425662279129 -0.000964634120464325
-0.07109092175960541 -0.02830454707145691 0.16264647245407104
-0.12093663215637207 0.020255308598279953 0.022663399577140808
0.11311590671539307 -0.04116476699709892 0.20948132872581482
0.0656379759311676 -0.11460710316896439 0.23734337091445923
-0.11933928728103638 0.004274897277355194 0.024529682472348213
-0.08649849891662598 0.05530623719096184 -0.23045261204242706
0.09904684126377106 -0.06419527530670166 -0.006002968177199364
-0.12290015816688538 0.027268800884485245 0.09934725612401962
-0.0964406207203865 0.0995856523513794 0.15974007546901703
0.08020220696926117 -0.05973408371210098 -0.2136654406785965
0.041137851774692535 -0.105491042137146 -0.028384976089000702
-0.1356489360332489 0.03074325993657112 0.2736820578575134
0.01889086700975895 -0.12320228666067123 -0.0343436636030674
0.12153873592615128 -0.059426166117191315 0.008256322704255581
0.10805714130401611 -0.061815328896045685 -0.0042528267949819565
-0.11384264379739761 0.033203933387994766 -0.15397998690605164
-0.10909396409988403 -0.04040222242474556 0.01648952066898346
0.089082270860672 -0.06076417118310928 0.2408955842256546
-0.11927951127290726 0.019291602075099945 0.0018298160284757614
-0.1256076991558075 0.025505300611257553 0.002998359501361847
0.026767754927277565 -0.10447090119123459 -0.03792356699705124
0.047696925699710846 -0.09672574698925018 0.004141269251704216
-0.038526348769664764 -0.1010046899318695 0.27702438831329346
-0.09404300153255463 -0.058105845004320145 0.04662790894508362
-0.12412131577730179 0.010229687206447124 0.012364072725176811
0.14433935284614563 -0.055916570127010345 0.18483154475688934
0.053810812532901764 -0.11540722846984863 -0.05374802276492119
0.10721713304519653 -0.0646488294005394 0.0010256620589643717
-0.03045678697526455 -0.06363189220428467 -0.15128865838050842
-0.07325419783592224 0.13788433372974396 0.26778581738471985
-0.12390217185020447 0.02837170660495758 0.03363044932484627
-0.007139040157198906 -0.029143761843442917 -0.3596705496311188
0.08459972590208054 -0.08147597312927246 0.07548480480909348
0.02065230906009674 -0.07169713079929352 -0.213825523853302
0.06189417839050293 -0.09260976314544678 -0.0026962975971400738
-0.05473693087697029 -0.11974895000457764 0.12736313045024872
-0.11402067542076111 -0.050127141177654266 -0.12314289808273315
-0.11641871184110641 0.051284171640872955 0.1245032548904419
0.04581707343459129 -0.09910682588815689 -0.006074924021959305
-0.057427503168582916 -0.07142955809831619 -0.19046913087368011
0.10735365003347397 -0.0778878778219223 0.10659667104482651
-0.12263107299804688 0.02150702103972435 0.01992580108344555
0.02326275408267975 -0.11686406284570694 -0.027307404205203056
0.03525122255086899 -0.08643410354852676 0.10610171407461166
0.05360151827335358 -0.10717742890119553 0.13309204578399658
-0.12813949584960938 -0.02347148209810257 0.1761896163225174
0.00370086170732975 -0.11390841007232666 -0.043993547558784485
-0.07443059980869293 0.15398071706295013 0.38501378893852234
-0.10893318057060242 -0.019611729308962822 0.05233434587717056
-0.11099712550640106 0.0008686049841344357 0.15551891922950745
-0.0137967299669981 -0.12110024690628052 0.35448235273361206
-0.08103671669960022 0.016478780657052994 -0.2863783836364746
-0.11501292139291763 0.020084476098418236 0.2086968868970871
0.06636075675487518 -0.10404640436172485 -0.08270904421806335
