0.08478495478630066 -0.09493745863437653 -0.017144374549388885
0.05895699933171272 -0.11032203584909439 -0.19834956526756287
-0.1363469511270523 -0.009432954713702202 0.09413512051105499
-0.07285510003566742 0.12157867848873138 0.05969006568193436
-0.05444712936878204 -0.09302115440368652 -0.19984816014766693
0.10242652893066406 -0.06744715571403503 0.07509822398424149
-0.06725400686264038 0.13149148225784302 0.06643600761890411
-0.056474607437849045 0.061101317405700684 -0.2247832715511322
-0.0088333860039711 -0.11940339207649231 -0.14610961079597473
-0.0955805703997612 -0.07802888005971909 -0.14149227738380432
0.02457435242831707 -0.1377907246351242 0.010484281927347183
-0.1100040078163147 -0.08718295395374298 0.09364115446805954
-0.08026108890771866 -0.10550578683614731 0.24757727980613708
0.07562537491321564 -0.092612624168396 0.2085052728652954
0.12087087333202362 -0.06295424699783325 0.0008031132165342569
-0.07524716854095459 0.13525599241256714 -0.07506149262189865
-0.12410047650337219 -0.026410922408103943 0.03683353215456009
-0.12563616037368774 0.06176616623997688 0.08800103515386581
-0.12568265199661255 0.0709824413061142 -0.10975228250026703
-0.025721950456500053 -0.1328045129776001 0.14680038392543793
0.028745431452989578 -0.13270600140094757 0.033156346529722214
0.09488321095705032 -0.09064936637878418 -0.06257274746894836
-0.034980133175849915 0.0559145025908947 -0.248897984623909
-0.014256131835281849 -0.1286465972661972 -0.17150570452213287
0.09604795277118683 -0.07682166993618011 0.303104043006897
-0.041020989418029785 -0.13233345746994019 0.15043295919895172
-0.10993510484695435 -0.0941949188709259 0.192841574549675
-0.13583722710609436 -0.009426032193005085 0.02356184646487236
0.05000651627779007 -0.11738577485084534 0.06496147066354752
-0.06656287610530853 0.1287277489900589 -0.06205711513757706
0.037467725574970245 -0.03492225334048271 -0.52711021900177
-0.12895655632019043 -0.020733192563056946 -0.1403803527355194
0.018587084487080574 0.060498014092445374 -0.5554774403572083
-0.019641878083348274 -0.0841137245297432 -0.21811415255069733
-0.13634085655212402 0.060687173157930374 0.21973302960395813
0.06970082223415375 -0.0993749126791954 -0.15918385982513428
-0.11556299030780792 0.11312234401702881 0.399046927690506
0.11725680530071259 -0.06282541900873184 0.36100417375564575
-0.13506391644477844 0.026286235079169273 -0.007697693072259426
-0.1421765834093094 -0.05244827643036842 0.3679444193840027
0.11627200245857239 -0.07050087302923203 -0.08160470426082611
0.04454512521624565 -0.11487860977649689 0.27136170864105225
0.08556322753429413 -0.08820182085037231 0.3489384353160858
0.06392332166433334 -0.07049858570098877 -0.24314568936824799
0.08900810778141022 -0.09420304000377655 -0.14241807162761688
-0.11637881398200989 0.10237489640712738 0.1436711847782135
-0.08276233077049255 -0.004074564203619957 -0.32626527547836304
0.08535334467887878 -0.09288027882575989 0.1266469657421112
-0.10191461443901062 -0.08499960601329803 -0.15339317917823792
0.06416168063879013 -0.11052872240543365 -0.1565985381603241
0.0030137300491333008 -0.06810634583234787 -0.3840649425983429
-0.12508168816566467 0.05847107619047165 0.09238889813423157
-0.13844183087348938 -0.0009833913063630462 -0.07761037349700928
-0.11259669065475464 -0.09200400859117508 0.09821590781211853
-0.03096233680844307 -0.05530550330877304 -0.34395086765289307
0.055476389825344086 -0.12646469473838806 0.005567844491451979
0.11442229151725769 -0.06283867359161377 0.010431820526719093
-0.08544883877038956 0.10969799757003784 -0.09835869073867798
0.049002185463905334 -0.10070805251598358 -0.19844798743724823
-0.06435475498437881 0.12920129299163818 0.09787449240684509
0.057446207851171494 -0.11736796796321869 0.009042387828230858
-0.13813605904579163 -0.034757308661937714 0.08656126260757446
-0.0879564955830574 0.12110891193151474 0.22616711258888245
0.07205946743488312 -0.05012400448322296 -0.29706138372421265
-0.15615858137607574 0.05778205394744873 0.3807753920555115
0.06371841579675674 -0.1180415004491806 -0.0036912765353918076
-0.08732780814170837 0.1232914924621582 0.17528007924556732
0.046009138226509094 -0.12536129355430603 0.03748461976647377
0.038116492331027985 -0.11263713240623474 0.3712649941444397
0.04590475186705589 -0.10912072658538818 0.22163042426109314
0.09881843626499176 -0.04355347901582718 -0.22047963738441467
-0.04157354310154915 -0.04033704474568367 -0.3480231761932373
0.0685378685593605 -0.09213631600141525 -0.02864033170044422
0.06448261439800262 -0.11796413362026215 0.010550792329013348
-0.053685516119003296 0.07181043177843094 -0.34513962268829346
0.11928217113018036 -0.042662687599658966 0.3271782696247101
-0.14110596477985382 0.04177907109260559 0.20171642303466797
-0.07436007261276245 0.1382216364145279 -0.08750428259372711
0.07364495098590851 -0.10763618350028992 0.13005438446998596
0.1288595348596573 -0.03781164437532425 0.07222162187099457
-0.13027560710906982 0.0542135089635849 0.024085259065032005
-0.10197664052248001 -0.05032174289226532 -0.20936864614486694
0.07033506780862808 -0.10253718495368958 0.03458449989557266
0.05560662969946861 -0.11954692751169205 -0.14874976873397827
-0.14148318767547607 -0.019958404824137688 0.12860091030597687
-0.140774205327034 0.0632588267326355 0.18113014101982117
-0.13750699162483215 0.030456317588686943 0.01642950251698494
0.000963674858212471 -0.12808573246002197 -0.05221862718462944
-0.049227021634578705 -0.12474523484706879 0.03926609829068184
-0.10375044494867325 0.10282251238822937 0.10348492860794067
-0.12798035144805908 0.0483921617269516 0.14372199773788452
0.09225520491600037 -0.09550167620182037 -0.022494904696941376
0.035762280225753784 -0.0696282908320427 -0.35575181245803833
0.061727166175842285 -0.13602741062641144 -0.09050578624010086
0.005356152541935444 -0.0908837765455246 -0.24989774823188782
0.10872530937194824 -0.05981137976050377 -0.017531663179397583
-0.0914500281214714 -0.09476920962333679 0.06562605500221252
0.02259294129908085 -0.11918330192565918 0.01605682075023651
-0.1030808836221695 0.13089272379875183 0.2528151869773865
0.06290783733129501 -0.10861264914274216 0.2682456076145172
0.11347469687461853 -0.06510630249977112 -0.002888759598135948
0.10183990001678467 -0.0786324292421341 -0.15288130939006805
-0.13914230465888977 0.06621206551790237 0.014701017178595066
0.12311995029449463 -0.0736285150051117 -0.14043119549751282
-0.09684779495000839 0.1407652348279953 0.4194934666156769
0.0041275545954704285 -0.13229316473007202 0.19210228323936462
0.005124989897012711 -0.12276455760002136 -0.17202726006507874
-0.1141999214887619 0.03580450639128685 -0.1643340289592743
-0.13141702115535736 0.000403854064643383 -0.17475499212741852
-0.06781656295061111 0.1281251460313797 0.1523820161819458
-0.08000881224870682 0.12419908493757248 0.03345954418182373
0.0971173644065857 -0.07933853566646576 0.07317499816417694
0.08391779661178589 -0.09762454777956009 -0.018088018521666527
0.09837454557418823 -0.08316129446029663 -0.015124304220080376
0.10373286157846451 -0.08313821256160736 -0.13884037733078003
0.07297487556934357 -0.1102292537689209 0.03896738588809967
-0.13231216371059418 0.019019221886992455 0.008560027927160263
0.10087300837039948 -0.08301122486591339 -0.03800354152917862
0.06462986022233963 -0.11430485546588898 -0.022619109600782394
-0.1364566534757614 0.05178215354681015 0.11945223808288574
0.08991248160600662 -0.09057188034057617 -0.04745609313249588
-0.006693283095955849 -0.13845759630203247 -0.13354180753231049
0.11172441393136978 -0.06417928636074066 0.005210667848587036
0.035643868148326874 -0.11890232563018799 0.08052194118499756
-0.13604916632175446 0.06113477796316147 0.020763687789440155
-0.03646641969680786 -0.1301102638244629 0.23786818981170654
0.11016897857189178 -0.06967029720544815 0.08889937400817871
-0.10495338588953018 0.07963189482688904 -0.21054545044898987
-0.13610872626304626 -0.040380723774433136 0.12153738737106323
0.09362207353115082 -0.09883300960063934 -0.013889345340430737
0.12315021455287933 -0.0678984597325325 -0.022124793380498886
0.06991613656282425 -0.10614033788442612 -0.014096762053668499
0.05991218984127045 -0.10971777886152267 0.2654200494289398
0.07111293077468872 -0.10835455358028412 -0.017877213656902313
0.007871991023421288 -0.10290795564651489 -0.22680328786373138
-0.08368074893951416 0.1476931869983673 0.3494817912578583
-0.03761769086122513 -0.08282285183668137 -0.23178817331790924
0.060520656406879425 -0.1112150251865387 -0.0087753189727664
-0.12095203995704651 -0.012623530812561512 0.0557466596364975
0.06183498352766037 -0.10841324925422668 -0.1617492139339447
0.08682136982679367 -0.09887289255857468 -0.03381408378481865
-0.07437270879745483 0.12779562175273895 0.04417800530791283
-0.10021039843559265 0.11686971783638 0.1966009885072708
-0.14712122082710266 0.023530080914497375 0.27096667885780334
0.003055177628993988 -0.1257271021604538 -0.04757718741893768
-0.12857796251773834 0.0640697330236435 -0.03739963471889496
-0.13999690115451813 -0.019856613129377365 -0.15553350746631622
-0.13085022568702698 -0.04388582706451416 0.008550005964934826
0.03290132060647011 -0.1282014399766922 0.11391019821166992
-0.1381978988647461 -0.024831853806972504 0.08287091553211212
-0.08398473262786865 0.12183664739131927 -0.08065758645534515
0.13758111000061035 -0.048773206770420074 -0.10266716778278351
-0.09996737539768219 0.1193423867225647 0.016199788078665733
0.09890758991241455 -0.04836595058441162 -0.33058324456214905
-0.04493580013513565 0.11472868174314499 -0.32507583498954773
0.11337719112634659 -0.09446531534194946 -0.10854469239711761
0.1206904724240303 -0.041103970259428024 -0.20916880667209625
0.10795309394598007 -0.06478957086801529 -0.004520725458860397
-0.05331854522228241 -0.02063840627670288 -0.38199228048324585
-0.14268556237220764 0.05881531536579132 0.012581800110638142
-0.043666254729032516 -0.12286488711833954 0.07670457661151886
-0.09132292866706848 -0.09596292674541473 -0.0830964744091034
-0.008181502111256123 -0.1189122349023819 0.02831919863820076
0.07277995347976685 -0.09636174887418747 0.4295828342437744
-0.1301765739917755 0.06692703068256378 -0.04401066154241562
-0.10445436835289001 0.03000883013010025 -0.19458189606666565
0.06684339791536331 -0.1107836440205574 -0.06342466175556183
-0.12355329096317291 0.030443713068962097 -0.15973693132400513
-0.07066400349140167 -0.060488950461149216 -0.248489111661911
-0.08571261167526245 0.1200663149356842 -0.1651877462863922
-0.08172118663787842 -0.10223263502120972 0.012588892132043839
0.11817999184131622 -0.059460341930389404 -0.005572504363954067
0.06447018682956696 -0.11199147999286652 -0.14713998138904572
-0.1169091984629631 0.10043253004550934 0.19614295661449432
0.11446110904216766 -0.0732884407043457 0.003474833443760872
-0.13036379218101501 0.025269649922847748 -0.12897369265556335
0.06180430203676224 -0.11611518263816833 0.001231557223945856
-0.08416533470153809 0.13304750621318817 -0.0955008864402771
0.05824507400393486 -0.1147981733083725 -0.040259212255477905
0.12381979823112488 -0.05933382734656334 0.0009985985234379768
-0.13219168782234192 0.060157060623168945 0.14792506396770477
-0.14389121532440186 0.06826315820217133 0.3584067225456238
0.07416437566280365 -0.11028890311717987 0.03099953383207321
0.01952432468533516 -0.13579601049423218 -0.12854517996311188
0.07492558658123016 -0.05791223794221878 -0.37073615193367004
0.05972493439912796 -0.11237503588199615 0.010447436012327671
0.10123221576213837 -0.08083604276180267 0.23803773522377014
0.0699361115694046 -0.11712665855884552 0.13463477790355682
-0.09882650524377823 0.014562228694558144 -0.2778239846229553
0.1213286817073822 -0.03557000309228897 -0.2771928012371063
-0.10204163193702698 0.08093298971652985 -0.17313310503959656
0.08544160425662994 -0.09033311903476715 0.17735111713409424
0.1074083149433136 -0.0770600438117981 -0.14046379923820496
0.11489671468734741 -0.04600118100643158 0.17930985987186432
-0.10896993428468704 0.10571078211069107 -0.027767999097704887
-0.14278078079223633 0.0760759487748146 0.3419366180896759
0.09035737812519073 -0.08965125679969788 -0.0365416556596756
0.10877469182014465 -0.05447642505168915 0.05345448851585388
-0.057707302272319794 0.0007621012628078461 -0.3637526333332062
0.06077542155981064 -0.08897413313388824 -0.18854957818984985
0.026893114671111107 -0.12452513724565506 -0.1352611482143402
0.11230812966823578 -0.06333021074533463 -0.00817934051156044
0.11532385647296906 -0.06552447378635406 0.0022568770218640566
0.03400690108537674 -0.12148474156856537 -0.13660237193107605
0.07746823877096176 -0.10590263456106186 -0.14948447048664093
-0.0924512967467308 0.12186621874570847 -0.006208543200045824
0.1274758279323578 -0.05163101479411125 -0.1731891632080078
0.11758255213499069 -0.06239096820354462 -0.004228230565786362
0.07362887263298035 -0.10139986872673035 0.1345144510269165
-0.04672557860612869 0.1338728964328766 -0.053152792155742645
-0.14048424363136292 0.07352010905742645 0.007751721888780594
-0.03227013349533081 0.08746861666440964 -0.38848406076431274
-0.14112749695777893 0.03308482840657234 -0.0017096186056733131
-0.07333004474639893 0.002132851630449295 -0.35069185495376587
-0.061575748026371 0.1328015923500061 0.07532364875078201
0.09713545441627502 -0.07406099885702133 0.07955066859722137
-0.08453832566738129 0.09403380006551743 -0.18878860771656036
-0.1396186500787735 0.009536515921354294 0.0936131551861763
0.03559800237417221 -0.09005826711654663 -0.2201414704322815
0.04466603696346283 -0.12134021520614624 -0.1640799343585968
0.08811528235673904 -0.10510630905628204 -0.006636934354901314
0.002906101755797863 -0.11470324546098709 -0.17159835994243622
-0.022996976971626282 0.05420510470867157 -0.4707915782928467
-0.07801660150289536 0.13257627189159393 0.03574477881193161
-0.037860527634620667 -0.0498143807053566 -0.379573792219162
0.08472757786512375 -0.093521349132061 -0.0193980373442173
-0.13821645081043243 0.03292843699455261 0.1053798571228981
-0.10099171847105026 -0.09237566590309143 -0.16586017608642578
0.12119235098361969 -0.061995480209589005 0.00418533431366086
0.11912721395492554 -0.056800663471221924 0.005375580862164497
-0.08345877379179001 0.12236419320106506 0.08987721800804138
0.03948052227497101 -0.11899607628583908 0.28385257720947266
-0.10431696474552155 -0.084383025765419 0.05980741232633591
-0.06495071947574615 0.06945393234491348 -0.2941744923591614
-0.15914082527160645 0.028078725561499596 0.4218606650829315
-0.1389843076467514 0.03558770939707756 -0.011077940464019775
0.03621287643909454 -0.07387249916791916 -0.32814717292785645
-0.14927364885807037 -0.004944576881825924 0.3054228127002716
0.08343900740146637 -0.10278414189815521 -0.03649463877081871
0.059375133365392685 -0.11967037618160248 0.08551481366157532
-0.12436511367559433 0.07955682277679443 0.25212550163269043
0.0054126400500535965 -0.13980966806411743 -0.028862986713647842
-0.13970059156417847 -0.0295756496489048 0.04570423811674118
-0.14236457645893097 0.018830090761184692 0.004392492584884167
-0.0010451320558786392 -0.13752900063991547 -0.13374322652816772
-0.009812574833631516 -0.02994905784726143 -0.5438790321350098
-0.06756596267223358 -0.10415880382061005 -0.1347128450870514
-0.06065746396780014 -0.023060888051986694 -0.2525237798690796
-0.06907948106527328 0.13278767466545105 0.1936284899711609
0.09447281062602997 -0.0921497493982315 -0.20105957984924316
-0.12211492657661438 0.08520650863647461 0.1741846799850464
0.06229022145271301 -0.1092028021812439 -0.09093371033668518
-0.0704779326915741 -0.11657672375440598 0.28891271352767944
0.11534453928470612 -0.07139740139245987 0.001908603124320507
-0.0035178586840629578 0.08151352405548096 -0.31699198484420776
0.1224718689918518 -0.07794360816478729 0.07885691523551941
0.1093854084610939 -0.06470701098442078 0.11620800197124481
0.11774767935276031 -0.06285232305526733 -0.003070804290473461
-0.13158398866653442 0.022365707904100418 0.026696160435676575
0.09966903924942017 -0.0867791399359703 -0.03539522364735603
-0.02368725836277008 -0.13140934705734253 -0.024869341403245926
-0.04861011356115341 0.13269299268722534 0.057428933680057526
0.1194920614361763 -0.06738877296447754 0.003954249434173107
-0.09970160573720932 0.10835415869951248 -0.030113771557807922
0.06302118301391602 -0.11932092905044556 -0.1274917721748352
-0.13457824289798737 0.06389562785625458 0.001942856702953577
-0.1305503249168396 0.06713059544563293 0.01946670562028885
-0.008837349712848663 -0.1332789808511734 0.3264666795730591
0.09871871769428253 -0.06517188251018524 0.019084950909018517
0.0667225643992424 -0.12066400051116943 -0.055134885013103485
0.029271772131323814 -0.12872999906539917 0.152390718460083
0.03581690043210983 -0.11097384989261627 -0.14730127155780792
-0.016903981566429138 -0.12924262881278992 0.3652228116989136
0.004120040684938431 -0.07761998474597931 -0.3247967064380646
0.04054084047675133 -0.08397773653268814 -0.24421563744544983
0.11335968971252441 -0.06695014238357544 0.06853646039962769
-0.08897100389003754 0.129826158285141 0.29804399609565735
-0.15242129564285278 -0.024237781763076782 0.4128187894821167
0.11220192909240723 -0.07979048043489456 -0.09857434034347534
-0.06107388436794281 0.13137730956077576 0.11828336119651794
0.06596902012825012 -0.12281090021133423 -0.0004814259591512382
0.12405392527580261 -0.03287125378847122 -0.38577964901924133
0.07508280873298645 -0.09661752730607986 0.142238050699234
-0.1301996111869812 -0.05063474178314209 0.21888843178749084
0.021538347005844116 0.07570025324821472 -0.46449822187423706
-0.06923358142375946 0.12216262519359589 -0.124418243765831
0.10072991997003555 -0.08060406148433685 -0.011801036074757576
-0.059210918843746185 -0.10959723591804504 -0.19332368671894073
-0.07684025168418884 0.13445785641670227 0.03418479487299919
0.024443719536066055 -0.12795352935791016 -0.09098407626152039
-0.12997907400131226 0.06446845829486847 0.06785908341407776
-0.06231093406677246 0.13502897322177887 0.04459528252482414
-0.07648218423128128 -0.09805142134428024 -0.03823664411902428
-0.12584224343299866 0.03472551330924034 -0.07272077351808548
0.0675896406173706 -0.10243260860443115 0.07054871320724487
0.026372505351901054 -0.12918415665626526 0.08009112626314163
-0.023849181830883026 0.024328889325261116 -0.4665786623954773
0.12170898914337158 -0.06888829916715622 -0.10792824625968933
0.08885233849287033 -0.08897660672664642 -0.03195107355713844
0.06750238686800003 -0.10965189337730408 -0.07839666306972504
0.09632010757923126 -0.07847307622432709 0.13545989990234375
0.02469073235988617 -0.10879342257976532 -0.17228452861309052
-0.08933848887681961 0.06307640671730042 -0.24237757921218872
-0.14055930078029633 0.03211723640561104 0.0038566719740629196
-0.0040383972227573395 -0.12675252556800842 -0.14874832332134247
0.05806993693113327 -0.11956074088811874 -0.005475769750773907
0.029692037031054497 0.027854112908244133 -0.596036434173584
-0.03844555839896202 -0.04607093706727028 -0.3755177855491638
0.06631351262331009 -0.10341751575469971 -0.01146786380559206
0.014300897717475891 -0.126210018992424 -0.14214491844177246
-0.1362074613571167 0.061634331941604614 0.01267293281853199
-0.09351509809494019 0.10799257457256317 -0.003924740478396416
-0.13721759617328644 0.06375978142023087 0.01147694792598486
-0.12968575954437256 0.04974469915032387 0.14424684643745422
0.014241776429116726 -0.0974264144897461 -0.2089916467666626
0.05009906738996506 -0.1190258264541626 0.1877434104681015
-0.08243487775325775 0.12107774615287781 0.1350259780883789
-0.033405937254428864 -0.11600898206233978 0.115007683634758
0.02013739012181759 -0.12142947316169739 -0.02910955622792244
-0.03827603533864021 0.1302891969680786 -0.21538925170898438
-0.0822257548570633 -0.1097775250673294 0.15828758478164673
0.08684846758842468 -0.08429121971130371 0.21784669160842896
-0.0364522822201252 0.13286389410495758 -0.13470768928527832
-0.05566270649433136 -0.07082274556159973 -0.23505377769470215
-0.10379824787378311 -0.05994769185781479 -0.12347322702407837
-0.10467548668384552 0.06368601322174072 -0.07438516616821289
-0.08850426971912384 0.12509921193122864 -0.040144480764865875
0.029765307903289795 -0.07182589173316956 -0.3302988111972809
-0.11413466930389404 0.12098295241594315 0.3411601185798645
0.010997440665960312 -0.06030510365962982 -0.4100339114665985
-0.10542944073677063 0.10419780015945435 0.15151184797286987
-0.1348506510257721 -0.03049013949930668 0.07654225826263428
-0.02482357993721962 0.10295115411281586 -0.21006570756435394
-0.09777352958917618 -0.10976971685886383 0.42120110988616943
-0.030064422637224197 -0.1298188865184784 0.11260033398866653
-0.11248445510864258 -0.0756564736366272 0.11502238363027573
-0.09862418472766876 0.020585423335433006 -0.15611928701400757
0.05985888093709946 -0.09454797208309174 0.3164336681365967
-0.13520091772079468 0.041958730667829514 -0.024883300065994263
0.12717771530151367 -0.06622599810361862 0.0026694051921367645
0.018644526600837708 -0.12876224517822266 0.3284228444099426
0.03852064907550812 -0.1283736526966095 -0.004582056310027838
-0.14518894255161285 0.007978922687470913 0.2147860825061798
0.08204467594623566 -0.09592609107494354 -0.007759010419249535
0.1113319993019104 -0.06490855664014816 -0.06520966440439224
0.11114944517612457 -0.06709939241409302 -0.001455975230783224
0.08301368355751038 -0.08055445551872253 -0.15671172738075256
-0.14618590474128723 -0.007622810546308756 -0.028974853456020355
-0.12685182690620422 0.06739982962608337 -0.018035029992461205
0.03173895180225372 -0.058667704463005066 -0.2689116895198822
-0.13777750730514526 0.05455959215760231 0.08424816280603409
0.028202582150697708 -0.13258793950080872 -0.0011370005086064339
0.02955714985728264 -0.1373288929462433 0.11094848811626434
0.0871519148349762 -0.09139273315668106 -0.03080070950090885
-0.14460629224777222 0.05830198526382446 0.29851284623146057
-0.13050919771194458 0.06717756390571594 0.012467664666473866
-0.10609252750873566 0.05640440061688423 -0.16678409278392792
-0.1345880925655365 -0.018895119428634644 -0.05803747847676277
-0.07218420505523682 0.10871797800064087 0.029389694333076477
-0.07464136928319931 -0.068292036652565 -0.22780722379684448
-0.1397646963596344 -0.027179647237062454 0.17834892868995667
-0.13121511042118073 -0.0017062705010175705 0.17374053597450256
-0.035791732370853424 0.11670300364494324 -0.2764977812767029
0.12923584878444672 -0.057217128574848175 -0.037860505282878876
0.10076946020126343 -0.078836590051651 -0.04667681083083153
-0.14174264669418335 0.06627724319696426 0.010656970553100109
0.046397894620895386 -0.10149435698986053 -0.2017047107219696
0.049048613756895065 -0.1221829503774643 0.06276591867208481
0.05955349653959274 -0.11186300963163376 0.07866396009922028
-0.07796090841293335 0.12834708392620087 0.07309548556804657
-0.050389572978019714 0.10364070534706116 -0.22369003295898438
-0.14053785800933838 -0.035432204604148865 0.2731543183326721
0.10067419707775116 -0.07391545176506042 -0.03241230919957161
0.1092250719666481 -0.06758047640323639 0.4345693290233612
-0.13234654068946838 0.060967765748500824 -0.00016043707728385925
0.1057014912366867 -0.06602908670902252 -0.187272846698761
0.09439359605312347 -0.07729017734527588 0.006702277809381485
-0.1043156236410141 -0.10125631093978882 0.07093065232038498
-0.009076366201043129 -0.12612956762313843 0.08804880827665329
-0.08787089586257935 -0.09606750309467316 -0.08462122827768326
0.12131812423467636 -0.05836360156536102 -0.0021621612831950188
0.03272233530879021 -0.10975094139575958 0.11990116536617279
0.0429847314953804 -0.12311769276857376 0.32176461815834045
-0.052459001541137695 -0.10962148010730743 -0.05254349112510681
0.06923500448465347 -0.11401940137147903 -0.008496606722474098
-0.13249729573726654 0.010204972699284554 0.08578841388225555
-0.12731988728046417 0.056447841227054596 0.009340710937976837
0.08959068357944489 -0.08532484620809555 -0.009502683766186237
-0.13905976712703705 -0.015910886228084564 0.08134673535823822
0.0789329931139946 -0.09902523458003998 0.09071654081344604
0.05243551731109619 -0.11200165748596191 0.057012997567653656
-0.06343166530132294 0.14026948809623718 0.21695713698863983
-0.1395391821861267 0.043898094445466995 0.19928967952728271
0.062124546617269516 -0.11923278868198395 -0.003584697376936674
-0.09954691678285599 0.10745365917682648 0.21085846424102783
0.07496004551649094 -0.12051711231470108 -0.02992805652320385
-0.12049868702888489 -0.08433947712182999 0.37371212244033813
0.04332505911588669 -0.11104197800159454 -0.12659002840518951
0.09088820964097977 -0.09487876296043396 -0.013948127627372742
0.05017836391925812 -0.015700554475188255 -0.5866978168487549
0.07525166869163513 -0.09523778408765793 0.09259694814682007
0.07661868631839752 -0.10344868898391724 -0.014909930527210236
-0.07181821763515472 0.13311338424682617 -0.09675085544586182
-0.12536674737930298 0.07710535079240799 0.25121009349823
-0.10567693412303925 0.10408569127321243 -0.18035055696964264
0.048778727650642395 -0.12313468754291534 0.029796278104186058
-0.007095111533999443 -0.10043643414974213 -0.19140449166297913
-0.0792698860168457 0.06218534708023071 -0.28199049830436707
0.05166653171181679 -0.1200459897518158 -0.04040155187249184
-0.14350955188274384 0.026615919545292854 0.06678597629070282
0.11826764792203903 -0.07141395658254623 0.00549162644892931
-0.08461735397577286 0.11832250654697418 -0.024029556661844254
0.09037037193775177 -0.09782351553440094 -0.022793779149651527
0.048804961144924164 -0.11607007682323456 0.07165269553661346
-0.06101880222558975 0.129901722073555 0.03735565021634102
-0.10232966393232346 0.0654187947511673 -0.18261690437793732
-0.08756336569786072 -0.06360816955566406 -0.22415640950202942
0.09215675294399261 -0.10697018355131149 -0.13153593242168427
0.11036524921655655 -0.07204872369766235 0.07134081423282623
-0.06768184900283813 0.1269068717956543 -0.16482605040073395
-0.13480637967586517 -0.03055563196539879 0.05264074727892876
-0.13135811686515808 0.09699249267578125 0.1296849548816681
-0.08458201587200165 0.016197646036744118 -0.2576029896736145
0.07840471714735031 0.015223205089569092 -0.46101993322372437
-0.004692906513810158 -0.13191990554332733 0.42145949602127075
-0.06646400690078735 -0.058012038469314575 -0.2907024025917053
-0.06131187453866005 -0.08626334369182587 -0.20872503519058228
0.06732051074504852 -0.10800556093454361 0.032669104635715485
0.030992889776825905 -0.10846416652202606 -0.19648730754852295
0.06792588531970978 -0.10400190204381943 0.04309314861893654
0.09439603239297867 -0.024642055854201317 -0.414104700088501
-0.08912654221057892 -0.10625894367694855 0.2185385376214981
-0.09227730333805084 0.14480149745941162 0.3947160243988037
0.06510395556688309 -0.06691092252731323 -0.3512834906578064
0.04505550116300583 -0.10040034353733063 -0.20899167656898499
-0.06473848223686218 -0.04846285283565521 -0.23854994773864746
0.12040211260318756 -0.06200942397117615 -0.016671713441610336
0.03987323120236397 -0.11592462658882141 0.4457353353500366
-0.11943787336349487 -0.036216795444488525 -0.16482466459274292
-0.13207407295703888 0.040723271667957306 0.11303107440471649
0.08897705376148224 -0.0896064043045044 -0.0008290717378258705
-0.07927550375461578 0.11717969179153442 0.02996029332280159
0.11108507215976715 -0.06735499203205109 0.06052635982632637
-0.01337069645524025 -0.13015513122081757 0.010959865525364876
-0.1401817798614502 0.03675936162471771 0.004673357121646404
0.1019362360239029 -0.08113330602645874 -0.057640716433525085
-0.01808476448059082 -0.12072160840034485 0.030177520588040352
0.11630474030971527 -0.06334351003170013 -0.0064572496339678764
-0.09570804983377457 -0.11899754405021667 0.09731151908636093
-0.138205885887146 0.01745743863284588 0.0007134657353162766
-0.06531266123056412 0.14044982194900513 0.046014875173568726
-0.13093699514865875 -0.04101923108100891 -0.0552542582154274
-0.011845393106341362 -0.06856222450733185 -0.3660973608493805
0.07425305247306824 -0.10854151844978333 -0.07230949401855469
0.11565448343753815 -0.0722201019525528 -0.004723233170807362
-0.03087628446519375 0.05621165782213211 -0.3723199963569641
0.12571534514427185 -0.057843372225761414 0.3975483477115631
-0.0836612731218338 0.12388487160205841 0.10280417650938034
0.0744154155254364 -0.09329468011856079 0.029615627601742744
-0.12392650544643402 0.021267153322696686 -0.012199264019727707
-0.12901926040649414 0.07381850481033325 0.28840020298957825
0.09675169736146927 -0.10280628502368927 -0.05546830594539642
-0.1517854630947113 0.05323971435427666 0.4041125476360321
-0.06988906860351562 0.13069936633110046 0.07695527374744415
0.09641799330711365 -0.08347013592720032 -0.029937326908111572
-0.10968143492937088 0.10296683758497238 -0.04414847120642662
0.07941897213459015 -0.09957224130630493 -0.02843959629535675
-0.15982621908187866 -0.02432313933968544 0.4338751435279846
0.09093913435935974 -0.09634879231452942 -0.03933640569448471
-0.11665835231542587 0.08383128046989441 -0.0598498210310936
-0.06156085804104805 -0.08604174107313156 -0.05561230704188347
-0.06652043014764786 0.14059174060821533 -0.07731245458126068
-0.08989253640174866 -0.02687479555606842 -0.25296884775161743
-0.07698635756969452 -0.12451436370611191 0.3094039559364319
0.11278697848320007 -0.05802109092473984 0.06664850562810898
-0.13791030645370483 -0.021146055310964584 0.06323003768920898
-0.10787267982959747 0.10938937216997147 -0.0045011891052126884
0.09764142334461212 -0.08734511584043503 -0.023767732083797455
-0.13047216832637787 0.0645175501704216 0.014696086756885052
0.08568350225687027 -0.11288383603096008 -0.10361260920763016
-0.1086457222700119 0.08573972433805466 -0.1647123545408249
-0.1093079149723053 -0.04628897085785866 -0.1802913248538971
0.05511651188135147 -0.03902699798345566 -0.40131890773773193
0.06596817076206207 -0.11735663563013077 -0.005915157496929169
0.07074552029371262 -0.11650638282299042 -0.005482759326696396
-0.10211507976055145 0.060990381985902786 -0.19191741943359375
0.12320095300674438 -0.046791981905698776 0.11290084570646286
-0.1334698349237442 0.012117797508835793 -0.04475998133420944
0.09068022668361664 -0.08512857556343079 -0.16396073997020721
-0.007866076193749905 -0.08899162709712982 -0.2594811022281647
-0.04251311719417572 -0.04073223099112511 -0.32121631503105164
-0.14388439059257507 0.02791878767311573 -0.1330404430627823
0.026963412761688232 -0.08901569992303848 -0.2997617721557617
-0.10322557389736176 -0.08396492153406143 0.08155655860900879
-0.012898214161396027 -0.0862983986735344 -0.285807728767395
0.05684696137905121 -0.11625410616397858 0.008436426520347595
0.09652946889400482 -0.045217737555503845 -0.24031299352645874
-0.05862753093242645 0.08645331859588623 -0.1980193853378296
-0.06652262061834335 0.13517022132873535 0.06598521769046783
-0.12320555746555328 0.08427402377128601 0.22445575892925262
-0.12762250006198883 0.0612860769033432 0.010615043342113495
-0.08187194913625717 0.060540903359651566 -0.22314800322055817
0.10525912046432495 -0.07912275195121765 -0.14131247997283936
-0.12050054967403412 0.09180936962366104 0.13345268368721008
0.12797659635543823 -0.06539171934127808 -0.0062960051000118256
-0.017867647111415863 -0.12969940900802612 0.1837884783744812
-0.12182191014289856 -0.060451358556747437 0.267607718706131
-0.07296591997146606 0.13304266333580017 -0.012734871357679367
0.08896863460540771 -0.09236070513725281 -0.054322779178619385
0.10006729513406754 -0.07854574173688889 0.057224806398153305
0.030652515590190887 -0.12485241889953613 0.12883427739143372
0.07170646637678146 -0.10305941849946976 -0.002297599334269762
-0.06727166473865509 0.12657159566879272 0.023198608309030533
-0.056386832147836685 0.04221607372164726 -0.2969619035720825
0.02839050069451332 -0.14095281064510345 -0.06376668810844421
-0.07714361697435379 0.12786157429218292 0.06226537376642227
-0.0766264945268631 0.13616876304149628 0.21851831674575806
0.11838401854038239 -0.06293544173240662 -0.004001145716756582
0.11276978254318237 -0.060440294444561005 0.06960146874189377
0.07507964223623276 -0.09244325757026672 -0.009476050734519958
0.10711691528558731 -0.06723088026046753 0.01221557054668665
-0.09693939238786697 0.12457536906003952 -0.034406859427690506
0.012285105884075165 -0.09535475820302963 -0.21977166831493378
0.10796047002077103 -0.0719972774386406 0.020952066406607628
-0.1341835856437683 0.06718244403600693 0.011509476229548454
-0.01274101808667183 -0.0833367258310318 -0.2412814199924469
-0.06812730431556702 0.13407519459724426 0.1088506206870079
-0.13503584265708923 0.07560840249061584 0.21412980556488037
-0.11185227334499359 -0.07508839666843414 0.04679512232542038
0.12300209701061249 -0.07016194611787796 0.0018398985266685486
0.08604294061660767 -0.10352281481027603 0.3521583378314972
0.11094562709331512 -0.08038149029016495 -0.035274215042591095
0.08423403650522232 -0.09295262396335602 -0.02822408452630043
0.09543926268815994 -0.09847992658615112 -0.03162700682878494
-0.012844384647905827 -0.11720771342515945 -0.17793230712413788
-0.017344335094094276 -0.04579721391201019 -0.3979376554489136
-0.12789832055568695 -0.07449766993522644 0.33063119649887085
0.11686733365058899 -0.06471887230873108 0.0034202057868242264
-0.0035271402448415756 -0.11982892453670502 -0.1374485194683075
-0.10846973210573196 0.11421379446983337 -0.02602182701230049
-0.07022979855537415 0.1260126829147339 -0.0858384370803833
0.06771532446146011 -0.10906518995761871 -0.016340572386980057
-0.12136843800544739 0.09756357222795486 0.26834630966186523
0.06561050564050674 -0.10631109774112701 0.15970435738563538
-0.034074150025844574 -0.12266889959573746 -0.1363956332206726
0.1257696896791458 -0.06407646834850311 -0.09553920477628708
-0.13274559378623962 0.06864254921674728 0.0165040735155344
0.0994485467672348 -0.02132752351462841 -0.3486238121986389
0.06463788449764252 -0.11933226883411407 -0.06148533895611763
0.03531334549188614 -0.1254996955394745 0.4236079752445221
-0.12925341725349426 0.058990005403757095 0.009408197365701199
-0.07721997797489166 0.12916061282157898 0.020780891180038452
-0.1389499455690384 0.03391332924365997 0.05551551654934883
0.009333097375929356 -0.1341579556465149 -0.08237552642822266
-0.010647743940353394 -0.12279364466667175 -0.060263052582740784
0.07114873826503754 -0.10917167365550995 -0.034648336470127106
-0.06043117493391037 -0.09743497520685196 -0.18742048740386963
-0.06241355091333389 0.014280514791607857 -0.3793429136276245
-0.14441709220409393 0.01580851525068283 0.31757423281669617
0.13016003370285034 -0.03698869049549103 -0.1916406899690628
0.10389536619186401 -0.06815030425786972 -0.006413663737475872
-0.008604642935097218 -0.100737065076828 -0.2115149348974228
0.036535583436489105 -0.12751628458499908 -0.14380547404289246
-0.08090444654226303 0.07035158574581146 -0.22626949846744537
-0.11830368638038635 0.09208241105079651 0.10963422805070877
0.09526868909597397 -0.0932946652173996 -0.13502761721611023
0.06665659695863724 -0.11196213215589523 -0.1648387610912323
-0.1361561119556427 0.0646359771490097 0.016069427132606506
0.07344934344291687 -0.0972263514995575 0.27401989698410034
-0.06996268033981323 -0.10813893377780914 0.2518584132194519
-0.06783938407897949 0.1368308663368225 0.09535675495862961
-0.09860691428184509 0.09944149851799011 -0.008298283442854881
-0.06005185842514038 0.11070007085800171 -0.20375385880470276
-0.08230115473270416 -0.11276543140411377 0.32373863458633423
-0.13286666572093964 0.10290989279747009 0.43857988715171814
0.10382673144340515 -0.08541934192180634 -0.04770669713616371
-0.134721040725708 0.0011839424259960651 -0.1005823090672493
-0.13354283571243286 0.043968915939331055 -0.09043440222740173
0.12488159537315369 -0.06507626175880432 0.00012316834181547165
-0.07458042353391647 0.12597417831420898 0.024888426065444946
0.05544824153184891 -0.11842459440231323 -0.04299277812242508
0.12721039354801178 -0.049456335604190826 0.21930387616157532
0.06697852164506912 -0.10243557393550873 0.1382775604724884
0.007337527349591255 -0.13251882791519165 0.3116855025291443
-0.046748414635658264 -0.1247282326221466 0.02942408062517643
0.11001153290271759 -0.08859232068061829 -0.07604897767305374
-0.1485937535762787 0.01438179798424244 0.1073722094297409
-0.07431353628635406 0.13662922382354736 0.31151074171066284
-0.10108805447816849 -0.08642387390136719 0.03780115023255348
-0.13894346356391907 0.06310383975505829 -0.0024627847597002983
0.11024303734302521 -0.07150913774967194 -0.0019008181989192963
-0.11343412101268768 0.10549817234277725 0.21945029497146606
0.03625824674963951 -0.10165314376354218 -0.18498091399669647
-0.07744063436985016 0.009020717814564705 -0.31297165155410767
0.09847496449947357 -0.07304408401250839 0.047621116042137146
0.04509218409657478 -0.09213346242904663 -0.2443077713251114
0.062483012676239014 -0.10953469574451447 0.23342444002628326
0.03243681415915489 -0.12222546339035034 0.4154830574989319
-0.039158910512924194 0.014076435938477516 -0.4304398000240326
-0.09030380845069885 0.03309377655386925 -0.21833691000938416
-0.1384144425392151 0.024628896266222 -0.03234326094388962
-0.029583720490336418 -0.08329451084136963 -0.243860125541687
-0.14214929938316345 -0.059955619275569916 0.41137564182281494
0.12448865175247192 -0.06259670853614807 -0.1617702692747116
-0.052123941481113434 -0.06631088256835938 -0.21714559197425842
0.13490135967731476 -0.0596034973859787 -0.16633747518062592
0.06510380655527115 -0.11511494219303131 0.10161374509334564
-0.1460828334093094 0.0157456137239933 -0.11818788200616837
-0.11511856317520142 0.07574160397052765 0.011650457978248596
-0.13212177157402039 0.02567543275654316 -0.16203823685646057
0.02597566694021225 -0.03289242833852768 -0.47371116280555725
-0.06535674631595612 0.1333373486995697 0.10023745894432068
-0.012780273333191872 -0.12276351451873779 -0.06963755935430527
0.09019671380519867 -0.08355708420276642 0.37103670835494995
0.07308723777532578 -0.11344435811042786 -0.014951774850487709
-0.13300862908363342 0.06181541457772255 0.0161344762891531
-0.04539990797638893 -0.12873393297195435 0.34729060530662537
0.07900752127170563 -0.09919411689043045 0.12605901062488556
-0.11163648962974548 0.06767391413450241 -0.175458163022995
0.09127402305603027 -0.09391942620277405 -0.08775079995393753
0.09972818940877914 -0.06251630932092667 -0.18752697110176086
0.11809201538562775 -0.050549544394016266 -0.10171525925397873
0.0905781239271164 -0.09953653812408447 -0.04223405197262764
-0.1250520497560501 0.07904756814241409 0.19287534058094025
-0.06506499648094177 -0.11746380478143692 0.1245030015707016
-0.13801191747188568 0.06476179510354996 0.019633116200566292
0.08180110901594162 -0.09359382838010788 -0.046465616673231125
0.12135106325149536 -0.0671701580286026 -0.003965346608310938
0.06853518635034561 -0.0895475521683693 -0.22275973856449127
-0.03728966787457466 0.06527066230773926 -0.329211950302124
-0.11349839717149734 0.07993051409721375 -0.07485993206501007
-0.13789239525794983 -0.02351393550634384 -0.02971811778843403
-0.06978166848421097 0.06526923924684525 -0.21547144651412964
0.11857347190380096 -0.08068950474262238 -0.10359497368335724
0.10944577306509018 -0.06848084926605225 0.0003247484564781189
0.10918492078781128 -0.06961836665868759 -0.1580745130777359
-0.08024218678474426 0.13550066947937012 0.005697514861822128
0.0558726005256176 -0.06278787553310394 -0.3956018388271332
0.05049914866685867 -0.11497226357460022 0.07430880516767502
-0.035126566886901855 -0.11401613056659698 -0.13021220266819
-0.13750118017196655 0.03247769922018051 0.0587986595928669
0.12078528106212616 -0.058328986167907715 -0.005779074504971504
-0.021723957732319832 -0.12724260985851288 0.3170413076877594
0.08702946454286575 -0.08720695227384567 0.1012803316116333
-0.06971433013677597 0.1425166130065918 0.17634399235248566
0.07425203919410706 -0.11334662139415741 -0.017844967544078827
-0.13627955317497253 0.06411732733249664 0.0145396888256073
-0.09286517649888992 0.09518133103847504 -0.1170373409986496
-0.02412717044353485 -0.12973813712596893 0.029208745807409286
-0.0718851238489151 0.12518765032291412 0.0695343017578125
0.10991634428501129 -0.06550899147987366 -0.004015589132905006
-0.11344484984874725 0.06988499313592911 -0.16288167238235474
0.021086841821670532 -0.12726503610610962 0.05997070297598839
0.07556256651878357 -0.04206935316324234 -0.3847936987876892
0.035858698189258575 -0.12002909183502197 0.35923171043395996
-0.13887982070446014 0.052950143814086914 0.27808451652526855
-0.14057405292987823 0.007463567890226841 0.011109242215752602
0.07283468544483185 -0.11152778565883636 -0.06048284471035004
0.08678899705410004 -0.09102042019367218 -0.14175982773303986
0.016330447047948837 0.06948471069335938 -0.38374873995780945
0.05494154989719391 -0.11945217102766037 0.0173129141330719
-0.05487726256251335 0.04256759211421013 -0.40773987770080566
0.07875625789165497 -0.10351653397083282 -0.029161442071199417
-0.008601251989603043 0.08084740489721298 -0.4216567873954773
-0.14646677672863007 -0.04668503999710083 0.16079619526863098
-0.12062805891036987 0.03854931518435478 0.014737604185938835
-0.06922405958175659 0.12401452660560608 -0.11737655103206635
-0.04727642983198166 -0.1280965656042099 0.4103282690048218
-0.055675484240055084 0.124057337641716 -0.08161357045173645
-0.04382456839084625 0.1391802430152893 0.004596162587404251
0.06069435551762581 -0.11350885033607483 -0.004698564298450947
-0.08697650581598282 0.15024791657924652 0.3132372200489044
0.08209539949893951 -0.06889352202415466 -0.2715110778808594
0.08237797766923904 -0.1008586436510086 -0.018822811543941498
-0.13928428292274475 0.0187612846493721 0.0027003309223800898
-0.12402473390102386 0.09395261108875275 0.2917104661464691
0.07917056977748871 -0.09486506134271622 0.19545704126358032
0.0597231388092041 -0.11237147450447083 -0.17508891224861145
-0.14074558019638062 0.017482466995716095 0.01308729499578476
-0.13511987030506134 0.07741042971611023 0.03252607211470604
-0.13150280714035034 0.05463090166449547 0.025874584913253784
0.013431061990559101 -0.1247081309556961 0.18800054490566254
0.11424358189105988 -0.0671340674161911 0.08095913380384445
0.04286633059382439 -0.10492932051420212 0.16086366772651672
0.06324300915002823 -0.120879627764225 0.0016854419372975826
-0.03258403018116951 -0.061692975461483 -0.318392276763916
0.0912938341498375 -0.08733499050140381 0.12420833855867386
-0.1342010647058487 -0.03378058969974518 0.06608444452285767
0.05541510134935379 -0.057989880442619324 -0.3461419939994812
-0.003086020238697529 -0.1285838782787323 0.1998194307088852
0.047437720000743866 -0.11464341729879379 0.09145598858594894
-0.030758680775761604 -0.1265287846326828 -0.033873721957206726
-0.13833627104759216 0.08411294221878052 0.1681920886039734
-0.06834030896425247 -0.10334496200084686 -0.01837419718503952
0.11502531170845032 -0.06304103881120682 -0.0054097482934594154
0.1235821545124054 -0.06504157185554504 -0.0029095038771629333
0.06954126805067062 -0.1018683910369873 0.2262653410434723
-0.06701593846082687 0.09411203861236572 -0.21461980044841766
-0.01607920229434967 -0.11938139796257019 -0.15055318176746368
-0.009699014015495777 -0.13071630895137787 0.031106125563383102
0.0637030079960823 -0.11401867121458054 0.05671606957912445
-0.13331252336502075 0.0657743588089943 0.09801026433706284
-0.015300139784812927 -0.09298768639564514 -0.22870807349681854
-0.10328234732151031 0.03754303604364395 -0.20582859218120575
0.07504267245531082 -0.10641112923622131 0.13545286655426025
0.1183248981833458 -0.06809279322624207 -0.0040169041603803635
-0.09256753325462341 0.11920297890901566 0.048391856253147125
0.11310635507106781 -0.0610891729593277 0.0011182259768247604
0.04763428121805191 -0.11044389009475708 0.19657236337661743
0.10904140770435333 -0.0775958001613617 -0.011274358257651329
-0.0768861398100853 0.1494334638118744 0.2712748050689697
-0.12711481750011444 0.061131127178668976 0.1323084682226181
0.1054803729057312 -0.05775632709264755 0.06481391191482544
0.0688941478729248 -0.038069065660238266 -0.4489583969116211
-0.14272943139076233 -0.020902171730995178 0.23009641468524933
0.06709852814674377 -0.10326988995075226 0.1228315606713295
0.12206794321537018 -0.0594857893884182 -0.002321894047781825
-0.06023930013179779 0.1197231113910675 -0.1997758001089096
-0.04162321984767914 -0.1219976395368576 0.43957439064979553
-0.12019352614879608 -0.07062885165214539 0.11646813154220581
0.0801280289888382 -0.09444750845432281 -0.028835106641054153
-0.037267304956912994 0.1235649436712265 -0.22774919867515564
0.029598725959658623 -0.12528027594089508 0.25577276945114136
-0.1106358990073204 0.10587859898805618 0.06031522527337074
-0.028438150882720947 -0.11783982813358307 0.023454170674085617
0.06719934195280075 -0.10480932891368866 0.13313345611095428
0.10535819828510284 -0.07219928503036499 -0.12166053801774979
-0.11658644676208496 0.08605260401964188 0.10249292105436325
-0.10593349486589432 -0.011948306113481522 -0.21219287812709808
0.061101432889699936 -0.11310900747776031 0.17106224596500397
0.09303086251020432 -0.08511221408843994 -0.14167380332946777
-0.1008339524269104 -0.0778701901435852 0.19322332739830017
-0.12853385508060455 0.0672530084848404 0.012198785319924355
0.06646405905485153 -0.10013498365879059 0.1585073620080948
0.10164967179298401 -0.06450603902339935 0.2173280417919159
-0.14113374054431915 0.02659057453274727 -0.004721246659755707
-0.0413205549120903 0.13621999323368073 -0.09037677943706512
0.10422320663928986 -0.08316782116889954 -0.022711550816893578
-0.13234476745128632 0.062109239399433136 0.015130859799683094
-0.12443514168262482 0.08834755420684814 0.06912606954574585
0.07437064498662949 -0.06362319737672806 -0.22568337619304657
0.10471078753471375 -0.07337570935487747 -0.1070704311132431
-0.13720355927944183 0.07380390912294388 0.34741276502609253
0.06402368098497391 -0.11943109333515167 -0.025465011596679688
0.08122637867927551 -0.09302819520235062 0.1942208707332611
0.12151401489973068 -0.06701071560382843 0.0012315614148974419
-0.07586798071861267 0.11234140396118164 0.07125595211982727
-0.10136023163795471 -0.06859393417835236 -0.07107533514499664
0.10549822449684143 -0.06580473482608795 0.2624359726905823
-0.1387765109539032 0.026025597006082535 0.012276374734938145
-0.12913328409194946 0.06502355635166168 0.037085097283124924
0.0999101996421814 -0.08594487607479095 -0.03611435368657112
0.06360623985528946 -0.11017870903015137 0.1116328090429306
-0.02302427776157856 -0.13679024577140808 0.29491573572158813
-0.1048431396484375 0.10879611223936081 0.07251187413930893
-0.13948185741901398 0.02480422705411911 0.0010035368613898754
0.11542657017707825 -0.08287152647972107 0.24351683259010315
0.09116276353597641 -0.10509945452213287 -0.11119403690099716
0.10977691411972046 -0.08359749615192413 -0.014034124091267586
0.015721887350082397 -0.11765104532241821 -0.1960814893245697
-0.12134163826704025 0.07533193379640579 0.20569758117198944
-0.125997856259346 0.06642577797174454 -0.06205675005912781
0.009204397909343243 -0.039676640182733536 -0.3886496424674988
0.04737100005149841 -0.11534842848777771 0.08278819173574448
0.005020069889724255 -0.09988708794116974 -0.20322927832603455
0.052402980625629425 -0.11944398283958435 0.03157591074705124
0.003186924383044243 -0.12304209172725677 0.11370435357093811
-0.04211732745170593 -0.07941515743732452 -0.2513006627559662
-0.07761915773153305 0.09730041027069092 -0.17167574167251587
0.10303260385990143 -0.08719699084758759 -0.04317179322242737
0.05261632800102234 -0.06283921748399734 -0.3248252868652344
0.08879223465919495 -0.08838869631290436 0.13013258576393127
-0.14183740317821503 0.021103914827108383 -0.0014687017537653446
0.09108664840459824 -0.08937011659145355 0.20771729946136475
0.07377680391073227 -0.09500184655189514 0.15902012586593628
0.05704215168952942 -0.12035538256168365 0.1304703950881958
-0.14462658762931824 0.046923764050006866 0.2923851013183594
