-0.033981774002313614 -0.08086451143026352 0.1375274956226349
-0.08159559965133667 0.03374819830060005 0.0639127865433693
0.15247677266597748 -0.06863917410373688 0.034261759370565414
-0.08496453613042831 0.025808069854974747 0.02167806588113308
-0.08518360555171967 0.009300013072788715 -0.018733112141489983
-0.08211822807788849 -0.00595083087682724 0.07770898938179016
-0.03680671006441116 -0.0637054294347763 0.05541211739182472
0.13788193464279175 -0.06726032495498657 0.03792211413383484
-0.07182976603507996 -0.06005247309803963 -0.02612566575407982
0.05561968684196472 -0.06955697387456894 -0.020183946937322617
-0.07707150280475616 -0.0023133177310228348 -0.020941447466611862
0.04140310734510422 -0.08163022249937057 -0.20586110651493073
0.08461317420005798 -0.09645777940750122 -0.13079769909381866
0.0057919942773878574 -0.06910371780395508 0.11912745982408524
0.10379374027252197 -0.08503339439630508 0.26032817363739014
-0.08000028133392334 -0.007062463089823723 -0.019248710945248604
-0.03882379084825516 -0.07066775858402252 0.05990179255604744
-0.08750276267528534 0.0072214026004076 0.11481103301048279
0.1516672819852829 -0.06886971741914749 0.04132305085659027
0.10966739058494568 -0.07367481291294098 0.022963346913456917
-0.08232694864273071 0.02205517143011093 0.02017156593501568
-0.068501777946949 -0.03118477202951908 0.030044376850128174
0.09196631610393524 -0.07084168493747711 0.1185220330953598
-0.07761688530445099 -0.013218744657933712 0.04418731480836868
0.11090846359729767 -0.07281677424907684 0.023465275764465332
0.10482670366764069 -0.07776069641113281 0.020986681804060936
-0.0909820944070816 0.07770071178674698 -0.01296630222350359
-0.04669968783855438 -0.07511857897043228 -0.16542184352874756
-0.028385687619447708 -0.08058840036392212 0.40000486373901367
-0.037607721984386444 0.2880067527294159 -0.04379957541823387
0.07844352722167969 -0.0691523551940918 -0.2561627924442291
0.06565900146961212 -0.07835006713867188 -0.17615002393722534
-0.03935858979821205 -0.06512387841939926 -0.1318076252937317
0.05548575893044472 -0.06953432410955429 0.06150446832180023
-0.07277441024780273 -0.02764526940882206 -0.01993868127465248
0.18027445673942566 -0.07612787932157516 0.09108740836381912
-0.08645874261856079 -0.018507197499275208 0.36332470178604126
0.2512686550617218 -0.07771356403827667 0.1846255362033844
-0.08224871754646301 -0.0005194693803787231 0.10536547005176544
-0.07599484175443649 -0.05982889235019684 -0.019578998908400536
-0.023166103288531303 -0.06707444041967392 0.06870193779468536
-0.09172867983579636 0.15963220596313477 0.19264891743659973
0.016270961612462997 -0.08088681101799011 0.20646515488624573
-0.007692543789744377 -0.07058460265398026 -0.018633460626006126
-0.04787563532590866 -0.038039594888687134 0.03458428010344505
-0.022105060517787933 -0.06615626066923141 0.08432547003030777
-0.0913287103176117 0.18095457553863525 0.05979347974061966
0.00347222201526165 -0.06997321546077728 0.12478108704090118
-0.07952409237623215 0.025508057326078415 0.021328836679458618
0.011965923942625523 -0.07428684085607529 0.011135858483612537
0.05073273926973343 -0.06500624120235443 -0.021499184891581535
-0.11762914061546326 0.1292829066514969 0.14639879763126373
0.13604441285133362 -0.09169251471757889 0.37898194789886475
-0.08337114751338959 0.0181149709969759 -0.0034120436757802963
-0.08126352727413177 0.020222555845975876 -0.013096357695758343
-0.0756114274263382 -0.01141369342803955 -0.024094542488455772
-0.08141401410102844 0.02287006378173828 -0.02423311397433281
-0.12932683527469635 0.17751850187778473 0.3311580717563629
-0.07511542737483978 -0.013520440086722374 0.040084756910800934
-0.0770464688539505 0.08054894208908081 0.0569373220205307
-0.11708489060401917 0.133249893784523 -0.0073085445910692215
-0.02056187205016613 -0.07542766630649567 -0.04161376506090164
-0.07043010741472244 -0.014795053750276566 0.07103821635246277
-0.08029820024967194 -0.023575978353619576 0.22748532891273499
-0.08108820766210556 0.05506381392478943 -0.008508022874593735
-0.07060925662517548 -0.07195225358009338 -0.00332957343198359
-0.06834575533866882 -0.05988495796918869 0.07681884616613388
-0.08706000447273254 0.010643566027283669 0.24201098084449768
0.0606234148144722 -0.08278968930244446 0.2058645486831665
-0.09034517407417297 0.021485449746251106 -0.0068817781284451485
-0.08422383666038513 -0.001674773171544075 0.06571703404188156
0.009570680558681488 -0.06981194764375687 -0.0992354303598404
0.11815561354160309 -0.07085045427083969 -0.00847812369465828
0.03498386964201927 -0.08298593014478683 0.1708652824163437
0.021242301911115646 -0.064960777759552 0.0016415214631706476
-0.09261103719472885 0.09332379698753357 0.3846015930175781
0.12059183418750763 -0.07089404761791229 -0.04428873211145401
-0.017163217067718506 -0.05515819042921066 -0.022458422929048538
-0.010870765894651413 -0.07958689332008362 0.28025802969932556
-0.06644865870475769 -0.03799096867442131 0.38886478543281555
-0.03861132636666298 -0.0688689649105072 -0.0037467647343873978
-0.035763829946517944 -0.07148431986570358 0.13304463028907776
0.04921997711062431 -0.07148779928684235 0.05072173476219177
0.03876643255352974 -0.06885992735624313 0.021567877382040024
-0.001321849413216114 -0.07029887288808823 0.06379740685224533
0.27090170979499817 -0.09854637086391449 0.3264423906803131
-0.09620792418718338 0.04428468272089958 0.4072442948818207
-0.07630738615989685 -0.005578668788075447 -0.028949733823537827
-0.013042617589235306 -0.06822828948497772 0.05322299152612686
0.06824368983507156 -0.07992249727249146 0.032822154462337494
-0.07580073922872543 -0.004601645283401012 -0.024034418165683746
-0.07133658975362778 -0.05637677386403084 -0.04081768915057182
-0.10621567070484161 0.1584347039461136 -0.20323242247104645
0.04263271018862724 -0.06540372967720032 -0.026276953518390656
0.05748743936419487 -0.06879456341266632 -0.0156924556940794
-0.0993184968829155 0.09481675177812576 -0.16519075632095337
-0.07974491268396378 0.022735491394996643 -0.012729376554489136
-0.07232429087162018 -0.06105609983205795 -0.028161674737930298
0.12499511986970901 -0.07625295221805573 -0.008067930117249489
-0.127675861120224 0.10029131919145584 0.3909633159637451
-0.011477019637823105 -0.0641520693898201 -0.0021020816639065742
-0.08708398789167404 0.019341450184583664 0.02208665758371353
-0.08800721168518066 0.019328542053699493 0.017260950058698654
0.13055767118930817 -0.06943336874246597 0.0016917809844017029
0.08788685500621796 -0.08965830504894257 0.29548344016075134
-0.003465767949819565 -0.06467493623495102 -0.052045442163944244
0.18442055583000183 -0.08908798545598984 0.35739538073539734
-0.08030283451080322 -0.02006584219634533 0.12492980062961578
0.12629583477973938 -0.0818728655576706 0.0017127320170402527
0.00719806645065546 -0.06853463500738144 0.02255888655781746
-0.0799327939748764 -0.002958611585199833 0.09740645438432693
0.10397879034280777 -0.0765000432729721 0.020361877977848053
-0.0927506685256958 0.2370903193950653 0.18046016991138458
0.009641870856285095 -0.083834707736969 0.25267812609672546
0.009753447957336903 -0.06708447635173798 0.0287237036973238
0.12451835721731186 -0.07651229202747345 -0.0027875807136297226
-0.06541245430707932 -0.0734468474984169 0.13326849043369293
-0.054983947426080704 -0.06279807537794113 -0.022518830373883247
0.14195892214775085 -0.08181331306695938 0.0640658587217331
-0.07340405136346817 0.0005844980478286743 -0.01830124296247959
-0.023217301815748215 -0.06252957135438919 -0.03402332589030266
0.0005961577408015728 -0.07034484297037125 -0.04237249493598938
-0.1272238790988922 0.15653452277183533 0.032774604856967926
0.056064922362565994 -0.0698661357164383 -0.008153489790856838
0.04838932305574417 -0.07187563180923462 -0.013627201318740845
0.03553031012415886 -0.08115865290164948 0.007889900356531143
0.06352325528860092 -0.06839606165885925 -0.011812571436166763
-0.015874439850449562 -0.0702945739030838 -0.18364571034908295
-0.06794610619544983 -0.03201140835881233 -0.012354752980172634
0.032414186745882034 -0.07654205709695816 -0.05477682873606682
-0.0669495239853859 -0.06771153956651688 0.008539244532585144
-0.010246539488434792 -0.0658276304602623 0.1206127479672432
0.08114995807409286 -0.07394199818372726 0.07230213284492493
0.024627575650811195 -0.0675550252199173 0.017775986343622208
-0.08544093370437622 0.019708503037691116 0.01657603494822979
-0.09095552563667297 0.04012467339634895 0.29297134280204773
0.11863906681537628 -0.07022222131490707 -0.008514605462551117
0.28681468963623047 -0.06961376965045929 0.07428187131881714
-0.059689201414585114 -0.062419306486845016 -0.006127136759459972
-0.07850902527570724 -0.0071106888353824615 0.09828513860702515
-0.002390550449490547 -0.07174374163150787 0.014630981720983982
-0.0020422637462615967 -0.07244344055652618 0.15531320869922638
-0.019194917753338814 -0.07239729166030884 0.11127270758152008
0.10599003732204437 -0.07461094111204147 0.018093595281243324
0.19272634387016296 -0.07394226640462875 0.26309043169021606
-0.08398200571537018 0.016536559909582138 -0.010300968773663044
0.013858675956726074 -0.06877052038908005 0.026675855740904808
0.010074548423290253 -0.07035435736179352 0.03219316899776459
0.06175769120454788 -0.07691653817892075 0.0505981408059597
0.11452391743659973 -0.0817025750875473 -0.07087159156799316
-0.08819859474897385 0.03804786503314972 0.2080429345369339
0.011763372458517551 -0.07138058543205261 0.013462651520967484
-0.03174937516450882 -0.06763257086277008 0.05556420236825943
-0.017342576757073402 -0.06670259684324265 -0.06841719895601273
-0.007120673544704914 -0.0661080926656723 -0.027215957641601562
-0.07964816689491272 0.042511388659477234 0.0019512479193508625
0.02735999971628189 -0.08041861653327942 -0.20179246366024017
-0.08205746114253998 0.023608900606632233 -0.03899877145886421
-0.06763945519924164 -0.05701242387294769 -0.02573133073747158
0.006368456408381462 -0.07285447418689728 0.003942232578992844
-0.07717569172382355 -0.0031112469732761383 0.07229600846767426
0.10673055797815323 -0.07373158633708954 0.011990102007985115
-0.06901431083679199 -0.056161485612392426 -0.02719108760356903
-0.016127539798617363 -0.06655353307723999 0.052656691521406174
-0.08740142732858658 0.015193764120340347 0.031972840428352356
-0.08874136209487915 0.10675904154777527 0.19951508939266205
0.05377670377492905 -0.07187867164611816 -0.016392646357417107
-0.010461810044944286 -0.0642472505569458 -0.027619343250989914
-0.08469320833683014 -0.007465190254151821 -0.0038235876709222794
-0.11100141704082489 0.1314522624015808 -0.24924159049987793
0.030799591913819313 -0.06969776004552841 0.014284659177064896
-0.05432615056633949 -0.05479126051068306 -0.01864856854081154
0.15975862741470337 -0.08108070492744446 0.2406587153673172
-0.10159651935100555 0.09527389705181122 -0.07078450918197632
0.001612383872270584 -0.07173287123441696 -0.024615749716758728
-0.04052172601222992 -0.06551596522331238 0.05610980838537216
-0.0019966624677181244 -0.07063085585832596 0.053094085305929184
-0.06811029464006424 -0.06267648190259933 0.26330628991127014
0.1242607831954956 -0.07917516678571701 -0.11362554877996445
-0.015875274315476418 -0.06121721491217613 -0.02683713473379612
0.08578468859195709 -0.06922760605812073 0.005479936487972736
-0.0816703587770462 -0.0051012057811021805 -0.017957068979740143
0.10884638875722885 -0.07367350906133652 0.01752488687634468
0.003309808671474457 -0.07777383178472519 0.1957576870918274
-0.04760080203413963 -0.06112699955701828 0.05553578585386276
-0.002579759806394577 -0.06557486951351166 -0.02639593556523323
0.2119627445936203 -0.08848891407251358 0.3708568513393402
-0.08283363282680511 0.07666376233100891 0.15127763152122498
-0.007953774183988571 -0.07112618535757065 -0.024784313514828682
-0.08951736241579056 0.15360431373119354 0.14943856000900269
-0.08007512241601944 0.029724322259426117 0.030140630900859833
-0.024668710306286812 -0.07589426636695862 0.17709513008594513
0.049680255353450775 -0.07697850465774536 0.050073765218257904
0.22174912691116333 -0.08568896353244781 0.2725604176521301
0.1047753244638443 -0.06787288933992386 0.046569064259529114
-0.10095067322254181 0.20922663807868958 0.35132697224617004
0.1805550456047058 -0.07007370889186859 0.038689371198415756
0.003496142104268074 -0.06720655411481857 0.019453123211860657
-0.08568437397480011 -0.07779616862535477 0.32066261768341064
0.005942873656749725 -0.06637325137853622 0.028519950807094574
0.026730068027973175 -0.07506541907787323 -0.048762235790491104
-0.0018566641956567764 -0.06472593545913696 0.003834335133433342
0.04979722201824188 -0.06567691266536713 -0.00909416750073433
0.3050288259983063 0.02146737277507782 0.07542692869901657
-0.09824337065219879 0.23663505911827087 0.034890059381723404
-0.07504170387983322 -0.012929306365549564 0.07674229890108109
-0.08560207486152649 0.015255831182003021 -0.0454641655087471
0.05296202003955841 -0.07045772671699524 -0.017688127234578133
0.19356049597263336 -0.0757485032081604 -0.20433282852172852
0.22527821362018585 -0.07080915570259094 -0.0724855363368988
0.10743232071399689 -0.07688653469085693 0.02117685042321682
-0.016802892088890076 -0.06986071169376373 0.03959228843450546
-0.019143089652061462 -0.060521915555000305 -0.022560931742191315
-0.1004767194390297 0.22616146504878998 -0.11065098643302917
-0.07682012021541595 -0.030685152858495712 0.05557765066623688
0.16148781776428223 -0.07686616480350494 0.16463878750801086
-0.07315309345722198 -0.05329224467277527 -0.04237578064203262
0.11484959721565247 -0.07501561939716339 0.014508699998259544
-0.07625921815633774 -0.025080490857362747 -0.008498155511915684
-0.038434986025094986 -0.06956199556589127 0.13274265825748444
0.08571461588144302 -0.07431729137897491 0.12538480758666992
0.03991011157631874 -0.07229255884885788 0.002099534496665001
-0.01466294378042221 -0.06469719111919403 -0.021742919459939003
-0.09051968157291412 0.05751972272992134 0.14369319379329681
-0.062283702194690704 -0.05099846050143242 -0.02361389994621277
0.05228142440319061 -0.0745377466082573 -0.012541323900222778
-0.08979347348213196 0.062401026487350464 -0.009600566700100899
0.03716561198234558 -0.07751627266407013 0.18328195810317993
-0.03338420018553734 -0.06286048144102097 0.0541149377822876
0.04452599212527275 -0.07661068439483643 -0.016603024676442146
-0.0829363614320755 0.018198499456048012 0.016599640250205994
-0.08953839540481567 0.12404846400022507 0.3668043613433838
-0.08777187019586563 0.04915393143892288 0.1230761706829071
-0.07104551047086716 -0.07776258140802383 0.26141655445098877
-0.03722686320543289 -0.07088571041822433 0.12320613861083984
-0.08142855018377304 0.02154281549155712 -0.021525554358959198
0.10986165702342987 -0.07127023488283157 0.015845512971282005
-0.07711196690797806 -0.005415784195065498 0.06771238893270493
-0.08187944442033768 0.020876513794064522 0.11630500853061676
0.015641167759895325 -0.07191625982522964 0.04134736210107803
-0.03776194155216217 -0.06277084350585938 0.0511220321059227
0.11976277828216553 -0.07215464115142822 -0.008591467514634132
-0.08434433490037918 0.02031579799950123 0.015455799177289009
0.11732050776481628 -0.07231749594211578 -0.0067204637452960014
-0.08349235355854034 -0.00406751548871398 0.08831354975700378
0.30615150928497314 0.02277170494198799 -0.06133285164833069
-0.1062062680721283 0.2327277958393097 0.01594390906393528
-0.08195990324020386 0.019446907564997673 -0.04613042250275612
-0.08555373549461365 0.017472103238105774 0.01797231286764145
0.12129005789756775 -0.07231686264276505 0.00918151531368494
-0.083426833152771 0.026322301477193832 -0.015942081809043884
-0.09706487506628036 0.04749093949794769 0.34359294176101685
-0.08884331583976746 0.020133573561906815 0.012915409170091152
-0.07849568873643875 0.01998392678797245 -0.016954878345131874
-0.07488156855106354 -0.017187725752592087 0.28929710388183594
0.10944820940494537 -0.0730370357632637 0.01827426627278328
-0.06896626949310303 -0.07499770075082779 0.15559370815753937
0.11879278719425201 -0.07052433490753174 -0.012361557222902775
-0.03127634897828102 -0.06031543016433716 -0.060531094670295715
0.2613649070262909 -0.08839721977710724 0.30281147360801697
-0.0884016826748848 0.13420043885707855 -0.05977003648877144
-0.09718818962574005 0.17743630707263947 -0.08038245141506195
-0.06945411115884781 -0.010228661820292473 -0.014124561101198196
0.03620564192533493 -0.06912435591220856 0.04169365018606186
-0.08038860559463501 0.061980053782463074 0.20181015133857727
0.035572439432144165 -0.07458432018756866 0.019102957099676132
-0.09459865093231201 0.0645957663655281 -0.23693197965621948
-0.07748514413833618 -0.006300708279013634 0.07637680321931839
-0.016270317137241364 -0.0667039230465889 -0.0164363794028759
-0.014958221465349197 -0.06593978404998779 -0.04731881618499756
0.0733688697218895 -0.08654162287712097 0.22642262279987335
-0.06807324290275574 -0.030337993055582047 0.15961259603500366
0.020800217986106873 -0.09020555764436722 0.3538011610507965
0.1269991546869278 -0.07213062793016434 0.010889768600463867
0.00209709070622921 -0.07106956839561462 0.010804117657244205
-0.08585172891616821 -0.0033147111535072327 0.10749378055334091
0.15050165355205536 -0.07840369641780853 0.010117930360138416
-0.09129252284765244 0.056193992495536804 0.12888318300247192
0.2744308412075043 -0.00027971528470516205 0.37188881635665894
-0.0005251608090475202 -0.06845574826002121 -0.08018871396780014
0.23564139008522034 -0.09062206745147705 0.22791893780231476
-0.018179621547460556 -0.06576447933912277 0.048276789486408234
-0.08626548200845718 0.016987277194857597 0.01541732158511877
-0.09317342936992645 0.033969245851039886 0.0075752995908260345
-0.05794040486216545 -0.03451152518391609 -0.04658703878521919
-0.07528157532215118 0.015573897399008274 -0.02017674222588539
-0.0025088656693696976 -0.06735621392726898 -0.014219938777387142
-0.08533602207899094 0.01904819905757904 0.19827480614185333
-0.07389295101165771 -0.0304555743932724 -0.014439476653933525
-0.07614981383085251 -0.030056023970246315 -0.01580464094877243
0.11563398689031601 -0.07391680777072906 0.010382269509136677
-0.06059123948216438 -0.04573716223239899 -0.026888590306043625
-0.08308763802051544 -0.010285861790180206 -0.1448695957660675
-0.11078544706106186 0.0524536594748497 0.04887710511684418
0.11087360233068466 -0.07635453343391418 0.009729402139782906
0.11221998929977417 -0.07701599597930908 0.009203124791383743
-0.09896793961524963 0.06510014832019806 -0.1265937238931656
0.18546320497989655 -0.07514572143554688 0.0006406009197235107
-0.08322519063949585 0.016552574932575226 0.06274523586034775
0.0044293953105807304 -0.06678949296474457 0.023994652554392815
-0.06833382695913315 -0.05242546647787094 -0.029243294149637222
-0.029631422832608223 -0.06179206445813179 -0.04533274471759796
-0.08734967559576035 0.018493209034204483 0.014583385549485683
-0.03725828602910042 -0.06875456869602203 0.0880790650844574
-0.08494476228952408 0.04700099676847458 0.10617394745349884
0.0051448047161102295 -0.06999578326940536 0.02208147943019867
-0.09099441766738892 0.03712146729230881 -0.22392094135284424
0.04549356549978256 -0.06453906744718552 -0.019805490970611572
-0.08799909800291061 -0.04619956389069557 -0.01748695969581604
0.16750115156173706 -0.08614063262939453 -0.24795079231262207
-0.08306435495615005 0.1038656234741211 0.11343526840209961
0.11537183076143265 -0.07138700783252716 1.4154240489006042e-05
0.20887894928455353 -0.06478771567344666 -0.01107182539999485
0.040806666016578674 -0.07221580296754837 0.024870451539754868
-0.08730011433362961 0.18721173703670502 0.16881084442138672
0.1132977157831192 -0.07691505551338196 0.017328573390841484
-0.0705740675330162 -0.058513812720775604 0.4035155177116394
-0.10278938710689545 0.20868170261383057 -0.2278042584657669
0.07452869415283203 -0.09223021566867828 0.33925938606262207
-0.08050715923309326 -0.05947236716747284 -0.028214730322360992
0.11204974353313446 -0.08129090070724487 -0.006600390188395977
-0.10147909820079803 0.053062453866004944 0.021433018147945404
0.04458502680063248 -0.06707955151796341 -0.02074360102415085
-0.07884619385004044 0.015193678438663483 -0.01623375713825226
-0.006029233336448669 -0.08277516067028046 0.2891700863838196
-0.06490921229124069 -0.025907056406140327 -0.0012766532599925995
-0.0802791640162468 0.020665820688009262 0.0182446651160717
0.1515023410320282 -0.09289084374904633 -0.14226828515529633
0.0490327887237072 -0.07909774780273438 0.01360129751265049
0.040741316974163055 -0.0751803070306778 0.020119816064834595
-0.04422304034233093 -0.07294406741857529 0.07795148342847824
-0.013182232156395912 -0.07191977649927139 0.05172542855143547
-0.061484355479478836 -0.06613048911094666 0.035993386059999466
0.1419268101453781 -0.06424960494041443 -0.02817588672041893
-0.08789415657520294 0.015828052535653114 0.016788393259048462
-0.08186699450016022 0.021945089101791382 -0.011653319001197815
-0.04558825492858887 -0.05063871294260025 0.12856793403625488
0.03032872825860977 -0.09392543137073517 0.3910680413246155
0.010404067113995552 -0.06405877321958542 0.026928629726171494
-0.06405532360076904 -0.08612889796495438 0.4068046808242798
0.0008125212043523788 -0.07425130158662796 0.013776281848549843
-0.024925770238041878 -0.06943711638450623 0.009022071957588196
0.17184890806674957 -0.07878804206848145 0.054857037961483
-0.025525161996483803 -0.06262022256851196 -0.005832996219396591
0.29427823424339294 0.022852178663015366 0.19557616114616394
0.005946952849626541 -0.06508108973503113 -0.007462505716830492
-0.06828633695840836 0.014940863475203514 -0.23751284182071686
-0.05406079441308975 -0.02895231917500496 -0.026086915284395218
-0.07867621630430222 0.20907112956047058 0.14263612031936646
-0.08788380026817322 0.11898583918809891 0.11418280005455017
-0.07840640097856522 0.017397526651620865 -0.040285468101501465
0.08992510288953781 -0.09528268128633499 -0.13962648808956146
-0.08350697159767151 0.032270222902297974 0.10523760318756104
0.13267914950847626 -0.08136816322803497 0.015035109594464302
-0.08533574640750885 0.017735512927174568 0.1153012216091156
-0.08643534034490585 0.17266495525836945 0.03490035980939865
-0.08399646729230881 0.015486536547541618 0.018151095137000084
-0.00315052829682827 -0.07221704721450806 0.007990601472556591
0.052954867482185364 -0.06688406318426132 -0.014839492738246918
0.1108659952878952 -0.0725928246974945 0.014928236603736877
-0.0860162153840065 0.12773683667182922 0.17280852794647217
-0.0882883220911026 0.017479514703154564 -0.1146121546626091
-0.08185921609401703 0.16022714972496033 -0.008796922862529755
0.0619029775261879 -0.07576488703489304 -0.06423288583755493
0.11155063658952713 -0.07781187444925308 0.018491752445697784
0.05492882803082466 -0.06181609258055687 -0.019247855991125107
0.10333580523729324 -0.08022948354482651 0.018063966184854507
0.11250463873147964 -0.07392990589141846 0.022260306403040886
0.11686505377292633 -0.0741865336894989 0.014334733597934246
-0.10196535289287567 0.19184526801109314 0.24404262006282806
-0.0011516343802213669 -0.06312385946512222 -0.014736281707882881
-0.08978632837533951 0.042662981897592545 0.21849647164344788
-0.08337818086147308 0.0029344065114855766 -0.18362689018249512
-0.008327633142471313 -0.0632290467619896 0.050637636333703995
-0.08120473474264145 0.057555243372917175 0.12570324540138245
-0.0793311595916748 -0.010825552977621555 0.046360746026039124
0.057007938623428345 -0.08317261934280396 0.14594432711601257
-0.08269258588552475 0.22301781177520752 0.09412287920713425
-0.04836094751954079 -0.05769483372569084 0.008936762809753418
-0.0846845731139183 0.023817798122763634 -0.08461374044418335
-0.0012837592512369156 -0.06790518760681152 0.013095855712890625
-0.0006123948842287064 -0.06311783194541931 0.015496830455958843
-0.0904926136136055 -0.011667657643556595 0.30637386441230774
-0.1286768615245819 0.11877457052469254 0.3234591484069824
-0.05530635267496109 -0.05269547924399376 -0.01821780763566494
0.05449429899454117 -0.07682617008686066 0.1990201622247696
-0.009208658710122108 -0.06702443957328796 -0.026784561574459076
0.013551052659749985 -0.06701503694057465 0.04247310757637024
-0.08287141472101212 0.10463783890008926 -0.029717421159148216
-0.03529338166117668 -0.05730540305376053 0.30726516246795654
0.04688902199268341 -0.07424576580524445 -0.0030850376933813095
-0.09180980920791626 0.10509361326694489 0.32972583174705505
-0.08982960134744644 0.027878036722540855 0.013746824115514755
-0.07533896714448929 0.12240775674581528 0.11681045591831207
-0.09800025820732117 0.2192075401544571 0.05446361377835274
-0.03594916686415672 -0.06463383138179779 0.059140827506780624
0.03592025861144066 -0.05649769306182861 0.07286138087511063
0.05588069185614586 -0.06709670275449753 -0.016217084601521492
-0.0792720764875412 -0.0033645695075392723 -0.01891620084643364
0.05121488496661186 -0.06318450719118118 -0.252939909696579
-0.082047238945961 0.017868854105472565 0.02099096029996872
-0.1163945123553276 0.07375246286392212 0.3248426616191864
-0.06341978907585144 -0.0590812973678112 -0.029292050749063492
-0.09840986132621765 0.25781458616256714 -0.008655279874801636
-0.07422472536563873 -0.05707507207989693 -0.023751109838485718
-0.0833112820982933 0.01860121265053749 -0.00669211708009243
-0.017106084153056145 -0.05380616337060928 -0.025255843997001648
0.11376476287841797 -0.08709731698036194 -0.02688460424542427
0.058621201664209366 -0.07372800260782242 -0.013986590318381786
0.12336976826190948 -0.07021252810955048 0.009249713271856308
-0.08561185002326965 0.021684493869543076 0.1072792038321495
0.008034603670239449 -0.0695900171995163 0.053185999393463135
-0.08337315917015076 0.026121249422430992 0.058560773730278015
0.04265275597572327 -0.07125288993120193 0.006194712594151497
-0.10605497658252716 0.24555930495262146 0.11694023013114929
-0.02187642641365528 -0.06471685320138931 -0.05077248439192772
-0.07719143480062485 -0.07315840572118759 0.18271800875663757
0.11081051081418991 -0.07173418998718262 0.015670033171772957
-0.0012665428221225739 -0.06801176071166992 -0.01982058212161064
0.11866296082735062 -0.07281678915023804 -0.011425884440541267
-0.06054878979921341 -0.06705909967422485 0.030326243489980698
0.21675580739974976 -0.07485666871070862 0.035943515598773956
-0.09742433577775955 0.2052006721496582 0.40549394488334656
-0.0036411620676517487 -0.05209798365831375 -0.2601257562637329
0.20726728439331055 -0.0795387551188469 0.23012983798980713
0.014692669734358788 -0.06555572152137756 -0.01917140558362007
-0.03596784174442291 -0.017153475433588028 -0.32694506645202637
0.06457997113466263 -0.07770849764347076 0.0037735644727945328
0.2837141752243042 -0.0735178291797638 0.12453964352607727
-0.07939581573009491 -0.06057640165090561 0.07744840532541275
0.03580828011035919 -0.06365124881267548 0.04797777906060219
-0.08677548170089722 0.025731388479471207 0.01889028400182724
-0.013122708536684513 -0.07149115204811096 -0.028101859614253044
0.15492011606693268 -0.07191918045282364 0.01631668210029602
-0.07435726374387741 -0.01106229331344366 0.06852291524410248
0.114336296916008 -0.07344193756580353 0.019918862730264664
0.16224004328250885 -0.08268783986568451 0.2271798551082611
0.0587756484746933 -0.06663627177476883 0.06198683753609657
-0.08023662865161896 -0.01606074348092079 0.06711771339178085
-0.06405534595251083 -0.049020975828170776 -0.019661972299218178
-0.08063572645187378 0.09336711466312408 0.07325588911771774
-0.05165360867977142 -0.05592593550682068 -0.013617265969514847
0.02473163977265358 -0.07490087300539017 -0.03479843586683273
-0.017102431505918503 -0.06386128067970276 -0.030055098235607147
0.10642729699611664 -0.06485465168952942 0.11402185261249542
-0.08964765071868896 0.010800885036587715 0.0007343264296650887
-0.06969845294952393 -0.05647475644946098 -0.02738916128873825
-0.03820551559329033 -0.058415740728378296 0.05299150198698044
-0.08006952702999115 -0.010389521718025208 0.08434868603944778
-0.08409510552883148 0.09984645247459412 -0.007828053086996078
-0.07821744680404663 -0.006389527581632137 -0.018807565793395042
-0.08221498131752014 0.04887920245528221 0.21391308307647705
-0.08339615166187286 0.031415365636348724 0.1885102093219757
0.009946366772055626 -0.06538884341716766 0.01879483461380005
0.11226584017276764 -0.0732681006193161 0.014966445975005627
-0.08421240746974945 0.0048065874725580215 0.07076073437929153
-0.09020885080099106 0.09215770661830902 0.4008544683456421
-0.0775458812713623 0.08536550402641296 0.049321774393320084
-0.05610296130180359 -0.05165965110063553 -0.0365728959441185
-0.08314137905836105 0.019589588046073914 0.02119029313325882
-0.10072442144155502 0.14587654173374176 0.39113059639930725
-0.11289845407009125 0.0807027742266655 0.18413057923316956
0.021280456334352493 -0.06758315861225128 -0.04600989818572998
-0.07036259025335312 -0.01651538908481598 0.1308152973651886
-0.07885599136352539 0.03244280815124512 -0.022165857255458832
0.06380731612443924 -0.06923656910657883 0.07593201100826263
-0.006047037895768881 -0.061864420771598816 0.05219544842839241
-0.07408557832241058 -0.08036437630653381 0.33664053678512573
-0.07980484515428543 0.011141845025122166 0.21317535638809204
-0.08125630766153336 0.019008953124284744 -0.004987784195691347
-0.0030619315803050995 -0.06661348044872284 0.019713329151272774
-0.005452150944620371 -0.06350007653236389 0.07451467216014862
-0.05092938244342804 -0.026393957436084747 0.1136382669210434
-0.08409441262483597 0.05206281319260597 0.1471116989850998
-0.07095922529697418 -0.03044990636408329 -0.015452750958502293
0.1833333820104599 -0.07585741579532623 0.07990340143442154
0.006694605574011803 -0.06852274388074875 0.008214492350816727
0.05441856011748314 -0.08588381111621857 0.22923246026039124
-0.09035612642765045 0.14936676621437073 0.058698102831840515
0.12328047305345535 -0.07541583478450775 0.0020456453785300255
-0.10180120170116425 0.2371944636106491 -0.0840676799416542
-0.08401148021221161 0.09225224703550339 -0.015456938184797764
-0.02066980116069317 -0.07098822295665741 -0.12789571285247803
0.059392765164375305 -0.08182725310325623 0.2435847967863083
0.09677869826555252 -0.07903546094894409 -0.1982869654893875
0.14634394645690918 -0.0951344445347786 0.284912109375
-0.07675086706876755 -0.007467558607459068 -0.12279517948627472
-0.06581220030784607 -0.06124893203377724 -0.026221705600619316
-0.08478250354528427 0.016281625255942345 0.014647207222878933
0.09486399590969086 -0.07756783813238144 0.06437688320875168
0.11927814036607742 -0.0748685821890831 0.01453577633947134
0.1224849596619606 -0.06600804626941681 -0.007308648433536291
0.007680598180741072 -0.0711381733417511 0.07291705161333084
-0.08783163130283356 0.26447632908821106 0.22096283733844757
-0.009588312357664108 -0.0704401284456253 -0.02655777707695961
0.10974395275115967 -0.07146719843149185 0.013507816940546036
-0.07022570818662643 -0.05728517472743988 -0.022337529808282852
-0.04311278462409973 -0.0767936110496521 0.2632942795753479
-0.1097928062081337 0.0868438333272934 -0.03359998017549515
-0.0020484626293182373 -0.07461473345756531 0.16049784421920776
0.11094571650028229 -0.07184538245201111 0.015900887548923492
-0.0861164778470993 0.12803377211093903 -0.0018830318003892899
0.24187010526657104 -0.06350258737802505 -0.11859683692455292
-0.08140280097723007 0.13877823948860168 -0.005971296690404415
0.04919125884771347 -0.08554452657699585 -0.10259747505187988
-0.08282549679279327 0.009658459573984146 0.019686829298734665
0.11838884651660919 -0.09209013730287552 0.3262694776058197
-0.07517676055431366 -0.03097592294216156 -0.08501245826482773
0.1514250934123993 -0.07837621867656708 0.04653330519795418
0.06196625903248787 -0.075392946600914 0.16152939200401306
-0.05383215844631195 -0.06968077272176743 -0.2539612948894501
0.118207648396492 -0.0855589359998703 0.15262779593467712
0.007648611441254616 -0.06890371441841125 0.02694021165370941
-0.0635456070303917 -0.04723268747329712 0.028270116075873375
-0.0655120387673378 -0.05272834375500679 0.027303118258714676
-0.08089947700500488 -0.0022095777094364166 -0.05770156532526016
-0.08837643265724182 0.019447367638349533 0.011686358600854874
-0.07309616357088089 -0.05906528979539871 -0.05419626086950302
-0.11485696583986282 0.08268957585096359 0.10132870823144913
0.11192986369132996 -0.07344992458820343 0.020594481378793716
0.12042317539453506 -0.07187598198652267 -0.011005610227584839
0.0854477733373642 -0.09524556994438171 0.1125275194644928
0.11981785297393799 -0.07412651181221008 -0.010948333889245987
0.0315743163228035 -0.07145241647958755 0.13936910033226013
-0.08706576377153397 0.024890724569559097 0.03765447437763214
0.11080818623304367 -0.08814317733049393 0.006021514534950256
-0.0820343866944313 0.00203545019030571 0.11780774593353271
0.11789720505475998 -0.07321653515100479 -0.014818362891674042
-0.05219787731766701 -0.06318362057209015 -0.007137303240597248
-0.06129520758986473 -0.05063318461179733 -0.02195442095398903
-0.012357402592897415 -0.09587189555168152 0.2942393124103546
0.08016881346702576 -0.06944697350263596 0.1435057520866394
-0.008812790736556053 -0.07482495903968811 0.141525536775589
-0.08291026949882507 0.022462274879217148 -0.007337743416428566
0.26793190836906433 -0.07235263288021088 0.05416090413928032
0.10859315097332001 -0.07606230676174164 0.021139059215784073
0.12627454102039337 -0.07205037772655487 -0.0015917466953396797
0.14813818037509918 -0.06993356347084045 0.14537663757801056
-0.08179433643817902 0.019849669188261032 -0.0001478344202041626
-0.08317200839519501 -0.0032239845022559166 0.08295272290706635
-0.021958600729703903 -0.06148655340075493 0.05498727783560753
0.22665730118751526 -0.06995056569576263 0.17038342356681824
-0.1008882001042366 0.28995317220687866 0.3788558840751648
0.14107653498649597 -0.08576119691133499 -0.04841277748346329
0.14502613246440887 -0.0565917044878006 -0.01679925061762333
-0.0075013041496276855 -0.0708945170044899 0.005351425148546696
-0.07335631549358368 -0.05606269836425781 -0.027321532368659973
0.027922898530960083 -0.07112308591604233 0.006653733551502228
0.022616829723119736 -0.07282978296279907 -0.050900109112262726
0.26995187997817993 -0.093045175075531 0.41117677092552185
-0.08169484883546829 0.022915344685316086 -0.017081113532185555
-0.0914071798324585 0.15676431357860565 0.10549608618021011
-0.0852426216006279 0.03731360286474228 0.05255042389035225
-0.06412944197654724 -0.059106357395648956 -0.02331739477813244
0.031204575672745705 -0.07087234407663345 0.05589650571346283
-0.0815228670835495 0.031759388744831085 -0.004251828417181969
-0.08634152263402939 0.11792217195034027 0.04412691295146942
-0.08543518930673599 0.02452475018799305 0.18542315065860748
0.06467783451080322 -0.09868729114532471 0.3855257034301758
0.0022008605301380157 -0.07779967039823532 0.11366371810436249
0.04847648739814758 -0.060460399836301804 -0.014850771054625511
-0.06015784665942192 -0.08554216474294662 0.257707804441452
-0.07915222644805908 -0.02115049585700035 0.05354205518960953
-0.0852033868432045 -0.04437479376792908 0.03702833503484726
0.11413224041461945 -0.07683704048395157 0.018465202301740646
0.00786939263343811 -0.07097464799880981 0.015754787251353264
-0.08316408097743988 0.0199818667024374 0.02492782659828663
0.055865123867988586 -0.0715927928686142 -0.018960420042276382
-0.08648698776960373 0.016177590936422348 -0.013533667661249638
-0.07842431217432022 -0.004575404338538647 -0.03584099933505058
-0.002479713410139084 -0.06679321080446243 0.011958960443735123
-0.08191806823015213 -0.013559134677052498 0.029642635956406593
-0.11631795763969421 0.10750681161880493 -0.06393404304981232
-0.0780712366104126 -0.06581130623817444 0.11898477375507355
-0.08323298394680023 0.018607620149850845 -0.012588918209075928
-0.083798848092556 0.08282171189785004 0.05131233483552933
-0.017481448128819466 -0.06650471687316895 -0.05851943418383598
-0.08066438883543015 0.024387957528233528 0.021445784717798233
0.035390157252550125 -0.06610415875911713 0.014909841120243073
-0.10941734164953232 0.09046926349401474 0.018794741481542587
0.026116998866200447 -0.07291830331087112 0.19227567315101624
0.19142457842826843 -0.09742553532123566 0.4120778739452362
0.052931636571884155 -0.07335077971220016 -0.01843387633562088
-0.07761988043785095 -0.002709290012717247 -0.014760725200176239
0.09784403443336487 -0.08434915542602539 0.2177293300628662
-0.010582111775875092 -0.06480231881141663 0.002274882048368454
-0.04279765486717224 -0.05589505285024643 0.06725184619426727
0.021245265379548073 -0.07211137562990189 -0.046737924218177795
0.0034925006330013275 -0.06815220415592194 0.018756859004497528
-0.07420933246612549 0.013349635526537895 -0.006547912955284119
-0.06773442029953003 -0.058082569390535355 -0.026727881282567978
-0.11143960803747177 0.057072725147008896 0.246486097574234
0.12340100854635239 -0.09323590993881226 0.017008239403367043
-0.11361794918775558 0.06802517175674438 0.28577160835266113
-0.08614017069339752 0.08593586087226868 0.1518518626689911
0.11560310423374176 -0.07111061364412308 -0.0013859332539141178
-0.008699171245098114 -0.0726819559931755 0.015507015399634838
0.10789558291435242 -0.07680404931306839 0.020920490846037865
-0.11221252381801605 0.09292227774858475 0.05493082478642464
-0.10447114706039429 0.2585373520851135 0.2778298258781433
-0.08352652937173843 0.01181638054549694 0.056523121893405914
-0.09984762221574783 0.13162225484848022 -0.10093390941619873
0.022621868178248405 -0.08126704394817352 0.1513243317604065
0.1737646460533142 -0.08762764930725098 0.3263128101825714
0.10295595973730087 -0.0744427740573883 0.010784680023789406
-0.01047980785369873 -0.0611066110432148 -0.04015897959470749
0.0181015282869339 -0.06723767518997192 0.05780376121401787
-0.08652251958847046 0.02140655554831028 0.019371552392840385
-0.03632645681500435 -0.059204570949077606 0.04418553039431572
-0.09312619268894196 0.06676121801137924 0.34809812903404236
-0.0738077163696289 -0.005732595920562744 -0.019231902435421944
-0.08463004976511002 0.028689637780189514 0.014977503567934036
0.015145695768296719 -0.07063048332929611 0.08488702028989792
0.0026603187434375286 -0.08982803672552109 0.36154693365097046
0.015334505587816238 -0.07817211002111435 0.21874287724494934
-0.08526218682527542 0.02608305774629116 -0.04478343576192856
-0.07751327753067017 -0.009567072615027428 0.06123773008584976
0.0628691017627716 -0.07665320485830307 0.05163336172699928
-0.09206126630306244 0.050667520612478256 -0.08361031115055084
0.003479858860373497 -0.06482774019241333 0.019011108204722404
0.11985492706298828 -0.07586222141981125 -0.007147140800952911
0.03906649723649025 -0.07376328110694885 0.05651078000664711
0.16662245988845825 -0.08504245430231094 -0.07966145128011703
0.1278536021709442 -0.06797076761722565 -0.035922572016716
-0.07402072846889496 -0.02723195217549801 -0.011772645637392998
-0.08233996480703354 -0.008193163201212883 0.10163725912570953
0.11078149080276489 -0.0750230997800827 0.18399327993392944
-0.07371793687343597 -0.06407185643911362 0.06439294666051865
-0.08529877662658691 0.04590835049748421 0.03341497480869293
-0.08888301253318787 -0.07828046381473541 0.3961389660835266
-0.0705004408955574 -0.05508268252015114 -0.024744275957345963
0.03168318048119545 -0.06506024301052094 0.04739559814333916
0.05586431175470352 -0.06869224458932877 0.11450321227312088
-0.06822122633457184 -0.026229437440633774 -0.020122479647397995
-0.019267305731773376 -0.061623405665159225 -0.04914594441652298
0.058840036392211914 -0.07865956425666809 0.044997140765190125
-0.008958343416452408 -0.06515870243310928 0.10648845881223679
0.03492312505841255 -0.07420866191387177 -0.1711481511592865
-0.078831747174263 -0.0025058025494217873 0.0861668586730957
-0.09332063794136047 0.044521514326334 -0.17985783517360687
-0.08626258373260498 -0.004142825957387686 0.10440695285797119
0.21075913310050964 -0.07058483362197876 0.08894193172454834
0.11258857697248459 -0.07578004151582718 0.01922418177127838
0.059736303985118866 -0.07074811309576035 -0.020372815430164337
-0.08327630162239075 0.006741739809513092 -0.029568713158369064
0.014667939394712448 -0.06079668551683426 0.016604557633399963
0.01905244216322899 -0.07778198271989822 0.04577058553695679
-0.078029103577137 -0.0052826181054115295 -0.014168196357786655
-0.005997387692332268 -0.06980156898498535 0.059254929423332214
-0.05669049173593521 -0.046968817710876465 -0.020034847781062126
0.1074250340461731 -0.08634427189826965 0.07987105846405029
-0.09088073670864105 0.1841687709093094 0.3244062662124634
-0.06634016335010529 -0.045891523361206055 -0.03219781816005707
0.006634616293013096 -0.06723415851593018 0.01924266293644905
0.09065531939268112 -0.08468899130821228 0.04538719356060028
-0.08281512558460236 -0.006179388612508774 -0.02371770143508911
-0.07532938569784164 -0.0022800154983997345 -0.030124742537736893
0.13130757212638855 -0.08214051276445389 0.09722664952278137
0.10781577974557877 -0.07688184082508087 0.01704103872179985
-0.079182468354702 -0.00694902241230011 -0.011734826490283012
0.03943811357021332 -0.072877898812294 0.0824386402964592
-0.1074913889169693 0.0619034506380558 -0.01373743824660778
-0.011065429076552391 -0.06055207550525665 -0.11603275686502457
-0.08900324255228043 0.1620093286037445 0.023666182532906532
0.2223922312259674 -0.08073856681585312 0.3258705735206604
-0.06893642991781235 -0.024532152339816093 0.09054190665483475
-0.08203501254320145 -0.0016576088964939117 0.10323025286197662
-0.08615768700838089 0.11974607408046722 0.24634046852588654
-0.09198418259620667 0.03719900920987129 0.27740243077278137
-0.1108308807015419 0.20649603009223938 -0.18027833104133606
-0.04910360276699066 -0.022960208356380463 -0.18077081441879272
-0.08739817887544632 0.04026396572589874 0.1103222519159317
0.009387750178575516 -0.07532599568367004 -0.021111296489834785
-0.09816429764032364 0.14878973364830017 0.2705898880958557
-0.08661271631717682 0.02440357208251953 0.03509112820029259
-0.07546377927064896 -0.010363224893808365 0.060000672936439514
0.10089100152254105 -0.07384254783391953 0.017346402630209923
0.04225905239582062 -0.07427284121513367 -0.019389143213629723
0.059000395238399506 -0.08192980289459229 0.055930886417627335
0.13304951786994934 -0.09713704138994217 -0.18582755327224731
-0.01648447848856449 -0.05914660543203354 0.061524443328380585
-0.09643581509590149 0.013948749750852585 0.3800533413887024
-0.014890792779624462 -0.06698612868785858 -0.039313919842243195
0.07475383579730988 -0.09225943684577942 0.3766060471534729
-0.010421624407172203 -0.07973960041999817 0.18068888783454895
0.12187313288450241 -0.07313051074743271 -0.01008124090731144
0.07522304356098175 -0.08789434283971786 0.015977768227458
0.04933466017246246 -0.07743744552135468 -0.022864315658807755
-0.0188093651086092 -0.06790357828140259 -0.02701614797115326
0.06665278971195221 -0.08931325376033783 0.2525864243507385
-0.12296981364488602 0.18254151940345764 -0.13081824779510498
-0.08414792269468307 0.01682220958173275 -0.018757283687591553
0.18124538660049438 -0.08004465699195862 -0.018041756004095078
-0.04898013174533844 -0.012723881751298904 -0.2409546673297882
-0.07768962532281876 -0.018507439643144608 -0.00777603592723608
0.01781751587986946 -0.06955147534608841 0.05055173113942146
-0.057321205735206604 -0.058844827115535736 -0.011192402802407742
-0.003181047737598419 -0.06915819644927979 0.013522647321224213
0.1175665482878685 -0.07444992661476135 -0.01628870889544487
-0.0108698271214962 -0.09066853672266006 0.38478749990463257
-0.0863436907529831 0.24076242744922638 0.27601855993270874
-0.10248646885156631 0.24586419761180878 0.3915301263332367
-0.006237797439098358 -0.06396053731441498 0.07490749657154083
-0.001462229061871767 -0.07228019833564758 0.10164407640695572
0.12321759015321732 -0.09228822588920593 0.4082125425338745
-0.08402681350708008 0.013135122135281563 -0.013300266116857529
-0.08046544343233109 0.027442999184131622 0.017489343881607056
-0.0727580115199089 -0.05672639235854149 -0.022030815482139587
-0.01414656825363636 -0.06359342485666275 -0.0334312729537487
0.00781521201133728 -0.06978257745504379 0.017839722335338593
-0.08437875658273697 -0.013208333402872086 0.07247154414653778
-0.041207291185855865 -0.08627822250127792 0.19214880466461182
0.1908373236656189 -0.07920408248901367 0.13129836320877075
0.053925130516290665 -0.06959071755409241 0.005210357252508402
0.011921742931008339 -0.08906851708889008 0.40343886613845825
0.007863732054829597 -0.07312307506799698 0.02842710167169571
0.1995949000120163 -0.07848143577575684 0.18519337475299835
0.2300998568534851 -0.07162171602249146 0.0721990168094635
-0.08469239622354507 -0.018856627866625786 0.31790608167648315
-0.07238581031560898 -0.004801115021109581 -0.02133733406662941
0.12000907212495804 -0.06470136344432831 -0.011173038743436337
-0.00812225416302681 -0.05848473310470581 0.03594714403152466
-0.09202194213867188 -0.0168581735342741 0.3999141454696655
-0.006499448791146278 -0.06410782039165497 -0.028927283361554146
0.10987768322229385 -0.0759962797164917 0.02595188096165657
-0.08182531595230103 0.12222465127706528 0.07884630560874939
0.11591202020645142 -0.07319407165050507 0.11119367182254791
-0.05246472731232643 -0.07241574674844742 0.08166785538196564
-0.08750785142183304 0.18347395956516266 -0.004964911378920078
-0.06613367795944214 -0.04543671756982803 -0.06924649327993393
0.0061403680592775345 -0.07355278730392456 0.10225865244865417
0.12685884535312653 -0.06952439248561859 0.02587789110839367
-0.09071071445941925 0.031551215797662735 -0.06187716871500015
0.03796897083520889 -0.07881293445825577 -0.008503861725330353
0.23729002475738525 -0.07303144037723541 0.004262073896825314
-0.08935461193323135 0.0027588680386543274 0.056688837707042694
-0.08340304344892502 0.02259880304336548 0.01518421433866024
-0.08241739869117737 0.022830776870250702 0.016248052939772606
-0.08794067800045013 0.02659905143082142 0.19666749238967896
0.24211236834526062 -0.06962600350379944 -0.24108754098415375
0.03489135950803757 -0.06549786776304245 0.005130942910909653
-0.05746819078922272 -0.044611312448978424 -0.028750423341989517
-0.0857030600309372 0.024243976920843124 0.24248887598514557
0.011744406074285507 -0.06740815937519073 0.01909540221095085
-0.023117782548069954 -0.059739768505096436 0.01312747597694397
0.2749866843223572 -0.08889441192150116 0.2629467248916626
-0.12431009113788605 0.16941873729228973 0.08650927245616913
-0.04622026905417442 -0.06826398521661758 0.06372690200805664
0.04771576449275017 -0.09066201001405716 0.3364553153514862
-0.024264685809612274 -0.0674404427409172 -0.015894725918769836
-0.1011737585067749 0.24243083596229553 0.07688485085964203
0.03807917237281799 -0.08045583218336105 0.2769053280353546
0.11660995334386826 -0.07374662905931473 0.025805754587054253
-0.04392360523343086 -0.04558909311890602 -0.11050552874803543
-0.05718955397605896 -0.039765581488609314 0.2123236060142517
-0.07787397503852844 -0.007074347697198391 0.0706072747707367
0.3041950762271881 0.01956167072057724 -0.19735591113567352
0.11923804879188538 -0.0748002752661705 0.018530210480093956
-0.08094377815723419 0.000283203087747097 -0.01974491775035858
0.04186341166496277 -0.07127998024225235 0.015380739234387875
-0.07981568574905396 -0.004218118265271187 -0.03107552044093609
-0.08327022194862366 -0.006258001551032066 0.06647973507642746
-0.08802653104066849 -0.054659925401210785 0.012014880776405334
0.049832213670015335 -0.07290692627429962 -0.0198151096701622
-0.06493304669857025 -0.06611950695514679 -0.19938558340072632
-0.07350470870733261 -0.025357894599437714 -0.017291026189923286
-0.07400622963905334 -0.00449642539024353 -0.022884560748934746
0.056063588708639145 -0.0736863762140274 -0.018780238926410675
-0.0819983035326004 0.02312495931982994 0.14084234833717346
-0.013392622582614422 -0.06833073496818542 -0.01711706444621086
-0.07946481555700302 0.03148837387561798 0.059958554804325104
