0.035083986818790436 -0.11991092562675476 -0.10042104870080948
0.057110510766506195 -0.05514810234308243 -0.03266140818595886
-0.07267884910106659 0.008099251426756382 0.026178540661931038
-0.07605316489934921 0.010491663590073586 0.016952892765402794
0.05444340407848358 -0.0590251162648201 -0.027467692270874977
-0.091216541826725 -0.022242989391088486 -0.014795317314565182
0.08272475004196167 -0.05438533052802086 -0.026741085574030876
0.08153662085533142 -0.056067243218421936 -0.02727857604622841
-0.09703811258077621 -0.008953168988227844 -0.09634364396333694
-0.09437201917171478 -0.0021021757274866104 -0.3682897090911865
-0.010628650896251202 -0.05762845277786255 0.41116946935653687
-0.11501148343086243 -0.04586943984031677 -0.12440097332000732
0.013850083574652672 -0.12278294563293457 -0.39978840947151184
0.0891290083527565 -0.11896947026252747 -0.2530609369277954
-0.04017277806997299 -0.12492400407791138 -0.37490981817245483
0.10283110290765762 -0.055243100970983505 -0.09444109350442886
-0.0785757303237915 -0.016910133883357048 -0.015169738791882992
0.05524498224258423 -0.059059903025627136 -0.040103185921907425
-0.0015270113945007324 -0.03564005717635155 0.23958906531333923
-0.04769488796591759 0.014561302959918976 0.14592614769935608
-0.06739073991775513 -0.030065059661865234 0.03844276815652847
-0.09482939541339874 -0.07568268477916718 -0.15705321729183197
0.05124186351895332 -0.07196295261383057 0.00897937547415495
-0.02582686021924019 -0.0004594288766384125 0.14201432466506958
-0.0030519384890794754 -0.03300287202000618 0.17445778846740723
0.039363499730825424 -0.10854972898960114 -0.09134045243263245
-0.10093275457620621 -0.06069088727235794 -0.06530209630727768
0.0552419051527977 -0.06817316263914108 0.008771849796175957
-0.05003998428583145 0.05494345724582672 -0.06988287717103958
-0.08833279460668564 -0.08616282045841217 0.030331570655107498
-0.07752025127410889 -0.01182551123201847 0.0016717207618057728
-0.09375409036874771 -0.023613307625055313 0.006844429764896631
0.08920279890298843 -0.05399997532367706 -0.021693449467420578
-0.029157960787415504 -0.002256195992231369 0.1458512246608734
0.011866976507008076 -0.052978433668613434 0.20683890581130981
-0.07249195873737335 0.0053144716657698154 0.020101215690374374
-0.0976029634475708 -0.056334029883146286 -0.08657675981521606
-0.12389390170574188 -0.013416200876235962 -0.2920278012752533
-0.0773487389087677 -0.02345668151974678 -0.014680927619338036
-0.026620496064424515 -0.0009308122098445892 0.13836678862571716
-0.09034428745508194 -0.031428202986717224 0.0035116421058773994
-0.08300486952066422 -0.00036655738949775696 -0.056009452790021896
-0.08806899189949036 0.016367897391319275 -0.10871385782957077
0.03995315358042717 -0.11897699534893036 -0.22293929755687714
-0.09110789000988007 -0.03106028027832508 -0.005138399079442024
-0.0782114788889885 -0.028378816321492195 0.05404151231050491
-0.07626179605722427 -0.007508431561291218 -0.11589229106903076
-0.1014685183763504 -0.05871068686246872 -0.060171812772750854
-0.09073930978775024 -0.03780519217252731 0.045248620212078094
-0.01625780388712883 -0.03886411711573601 0.25425541400909424
0.045630525797605515 -0.06772784888744354 -0.003209877759218216
-0.07124481350183487 0.004956366494297981 0.02354351058602333
-0.07770292460918427 -0.0152719896286726 -0.0037956852465867996
0.03369855880737305 -0.1492157280445099 -0.2825242578983307
0.07679329812526703 -0.0573333278298378 0.0006464561447501183
0.055601075291633606 -0.06051161140203476 0.03153563290834427
0.07454858720302582 -0.09165589511394501 -0.09655923396348953
-0.02303767390549183 -0.04396243020892143 0.28623372316360474
0.1031898558139801 -0.041388124227523804 -0.11674531549215317
-0.0758204311132431 -0.115939199924469 -0.18279549479484558
-0.08129538595676422 -0.0159143079072237 0.03562803566455841
-0.007178438827395439 -0.04339364916086197 0.3481829762458801
-0.10132333636283875 -0.05679340660572052 -0.056442152708768845
-0.09116831421852112 -0.036290492862463 -0.010139750316739082
0.028398631140589714 -0.092926025390625 0.0031035421416163445
0.06475336104631424 -0.05587683618068695 -0.035536352545022964
0.04899589717388153 -0.07276611775159836 0.017447760328650475
-0.032964058220386505 -0.05850246548652649 0.1828753799200058
-0.0003688335418701172 -0.05569786950945854 0.39664191007614136
-0.09654846787452698 -0.0976434051990509 -0.15674234926700592
-0.005898681003600359 -0.09218748658895493 0.02628188580274582
0.0858587697148323 -0.057005610316991806 -0.025708047673106194
-0.08773182332515717 -0.02461664006114006 -0.009740904904901981
-0.08731593936681747 -0.09098676592111588 -0.20651128888130188
-0.05742702633142471 0.0722254291176796 -0.31198301911354065
0.05800897628068924 -0.05493859201669693 -0.029708972200751305
0.05586951971054077 -0.09525032341480255 -0.04717455804347992
-0.08014757931232452 0.03617263212800026 -0.2524462044239044
-0.07352490723133087 0.006117023061960936 0.0224042609333992
-0.10362137109041214 -0.04672855883836746 -0.08634091913700104
0.08792826533317566 -0.056738607585430145 -0.02679947204887867
-0.015647374093532562 -0.04100281372666359 0.4350099265575409
-0.014669710770249367 -0.0976291075348854 0.01719076931476593
-0.09345024079084396 -0.037526100873947144 -0.0710352435708046
-0.07482726871967316 0.005342633463442326 0.02316204644739628
0.08620074391365051 -0.05606970191001892 -0.02472282387316227
-0.015952158719301224 -0.020366720855236053 0.2379799783229828
0.04890435189008713 -0.09715879708528519 -0.06427508592605591
-0.030651547014713287 -0.03815549239516258 0.26127856969833374
-0.057784292846918106 0.007863324135541916 0.07410325109958649
0.04145769774913788 -0.07126904278993607 0.004141220822930336
0.02911076322197914 -0.08956257253885269 0.007154825609177351
-0.08841507136821747 -0.03562533110380173 0.00014601252041757107
0.08125852793455124 -0.05369430035352707 -0.026718400418758392
-0.03579135611653328 -0.002534564584493637 0.07868540287017822
-0.019489195197820663 -0.04395652934908867 0.2581562101840973
0.05287213623523712 -0.10953459143638611 -0.040081687271595
0.0458364263176918 -0.10888505727052689 -0.16445286571979523
-0.0795394629240036 -0.028651271015405655 0.05981174111366272
-0.11070898175239563 -0.053193315863609314 -0.0658847913146019
0.04065736383199692 -0.09197017550468445 0.030089035630226135
-0.09812399744987488 -0.08067572116851807 -0.0586044117808342
-0.06489930301904678 -0.0943758487701416 -0.27897027134895325
0.03473852947354317 -0.12011159211397171 -0.26976969838142395
-0.060599714517593384 0.03755217045545578 -0.05659760534763336
0.09920574724674225 -0.05169801786541939 -0.05166185647249222
0.05421459674835205 -0.09530627727508545 -0.045658089220523834
0.05440288037061691 -0.059596411883831024 -0.0039749545976519585
0.05065073072910309 -0.09293258190155029 -0.048157937824726105
0.02009844407439232 -0.045007918030023575 -0.3100021481513977
-0.09847156703472137 -0.029675504192709923 -0.06527864933013916
0.04803740605711937 -0.09687989205121994 -0.13825556635856628
-0.12073981761932373 -0.026061542332172394 -0.2026142030954361
-0.09605611115694046 -0.03131408989429474 0.0011051688343286514
0.08313024789094925 -0.0545048713684082 -0.025845151394605637
0.05857250094413757 -0.07656390219926834 -0.028799597173929214
-0.07360684871673584 0.006006018258631229 0.016071533784270287
-0.03940378874540329 0.0005471017211675644 0.08224623650312424
0.06891372799873352 -0.05444614216685295 0.024745285511016846
0.04649464786052704 -0.060321830213069916 -0.004229355603456497
-0.07499164342880249 -0.12265241891145706 0.007466592825949192
-0.09166444838047028 -0.0362442247569561 -0.02830309420824051
0.08197256922721863 -0.09100348502397537 -0.11500348895788193
0.03586135804653168 -0.09179484844207764 -0.00399467907845974
-0.07397043704986572 -0.017159830778837204 0.039660777896642685
0.08414708077907562 -0.058621324598789215 -0.027102382853627205
0.03919325768947601 -0.05827494338154793 0.06797358393669128
-0.08548955619335175 -0.040344737470149994 -0.01629377156496048
0.04288778826594353 -0.09341660141944885 0.015122544020414352
0.05069994181394577 -0.076326385140419 0.027879299595952034
0.056843820959329605 -0.05819133669137955 -0.011071126908063889
0.11059796065092087 -0.048381950706243515 -0.1533278375864029
-0.06841256469488144 -0.03363832086324692 0.06244353950023651
-0.10267940163612366 -0.03179139643907547 -0.07185657322406769
0.01900048926472664 -0.08901891112327576 0.0029412927106022835
-0.07045209407806396 -0.09642718732357025 -0.33848685026168823
-0.003644743002951145 -0.1373206079006195 -0.10497190058231354
-0.07964529097080231 -0.016366224735975266 -0.021618830040097237
0.004773084074258804 -0.14096152782440186 -0.3591015636920929
-0.09021618217229843 0.030117567628622055 -0.12118162214756012
-0.09274213016033173 -0.06902288645505905 -0.07020580768585205
0.07695718854665756 -0.05164819955825806 -0.03920770436525345
-0.08776655793190002 -0.03268112987279892 0.003099026158452034
0.09089740365743637 -0.05686197802424431 -0.02711118571460247
-0.10587308555841446 -0.0595235601067543 -0.11797578632831573
-0.09250663220882416 -0.029128096997737885 0.0011438988149166107
-0.06290759146213531 0.03840044140815735 -0.07267477363348007
-0.04255349934101105 0.00047467276453971863 0.08965322375297546
0.09803685545921326 -0.05190103501081467 -0.053062617778778076
-0.013309067115187645 -0.12080604583024979 -0.028371479362249374
-0.10885882377624512 -0.046892933547496796 -0.16339221596717834
-0.03470221161842346 0.07766661047935486 -0.38698387145996094
0.05962073430418968 -0.07670103758573532 -0.0313698910176754
-0.10305657982826233 -0.04516852647066116 -0.08442557603120804
0.04066811501979828 -0.0368909016251564 0.10861147940158844
-0.0736733078956604 0.03677975386381149 -0.17865914106369019
0.028051283210515976 -0.11307655274868011 -0.06980715692043304
-0.10106338560581207 -0.03832905739545822 0.016453782096505165
0.015291934832930565 -0.09264470636844635 0.0067187026143074036
-0.04270846024155617 0.01160125620663166 0.08536750078201294
0.03416013717651367 -0.12515032291412354 -0.18598876893520355
0.04015204310417175 -0.08947784453630447 0.02055363729596138
0.08755774796009064 -0.05686764419078827 -0.021709030494093895
-0.10757450014352798 -0.06335627287626266 -0.10799643397331238
0.08405622839927673 -0.05722317099571228 -0.023241760209202766
0.01849803701043129 -0.04090873897075653 0.14961910247802734
-0.08886472135782242 -0.013057254254817963 -0.0346786305308342
0.05973472446203232 -0.07304389774799347 -0.02993170917034149
-0.017780952155590057 -0.04665732383728027 0.24661806225776672
-0.07524551451206207 -0.01840679720044136 0.05962604284286499
0.12447500228881836 -0.06001480668783188 -0.32755911350250244
-0.07520979642868042 -0.02222251705825329 -0.003009054809808731
-0.0894501805305481 -0.004156772047281265 -0.13608618080615997
-0.042507775127887726 -0.10051925480365753 0.07627537101507187
0.05063562095165253 -0.05473984777927399 -0.01202583871781826
-0.005318541079759598 -0.031932760030031204 0.268058180809021
0.08450166136026382 -0.05335275083780289 -0.02635517530143261
-0.012378094717860222 -0.0567031167447567 0.2565479576587677
0.07043518126010895 -0.05707346275448799 0.02181984856724739
0.05171750858426094 -0.08705019950866699 -0.04886983335018158
-0.013113576918840408 -0.022987384349107742 0.2755436599254608
0.0690842866897583 -0.055106308311223984 0.026831764727830887
0.07514093816280365 -0.12733224034309387 -0.33906090259552
-0.06729653477668762 -0.1298631727695465 -0.12885183095932007
0.06123657897114754 -0.059017445892095566 -0.03161121532320976
0.07558968663215637 -0.051454994827508926 0.018472207710146904
-0.06134898215532303 -0.004408607259392738 0.07915923744440079
-0.07927872240543365 -0.06871627271175385 0.0590890608727932
-0.09641636162996292 0.03274884819984436 -0.26047924160957336
0.05764620006084442 -0.060260109603405 -0.019346818327903748
0.11748238652944565 -0.07947951555252075 -0.2984312176704407
0.11085545271635056 -0.04006030783057213 -0.18977372348308563
0.08366930484771729 -0.05622217059135437 -0.027528580278158188
-0.0980684831738472 -0.04075011610984802 0.01141289435327053
0.0057875183410942554 -0.09293115139007568 0.01847630739212036
-0.07792113721370697 0.03253109008073807 -0.10889828205108643
-0.08004851639270782 -0.016438184306025505 -0.017085885629057884
0.05529559776186943 -0.06161252409219742 -0.04062720015645027
-0.10693645477294922 -0.01373708713799715 -0.09475293010473251
0.053591176867485046 -0.0653260201215744 -0.005837044678628445
-0.0983911007642746 -0.0773938000202179 -0.14430983364582062
0.043270960450172424 -0.07317034900188446 0.07900448143482208
0.04287561774253845 -0.07084380835294724 0.00930950976908207
0.03953316807746887 -0.09287791699171066 0.014777612872421741
0.03487405180931091 -0.12551991641521454 -0.12437120079994202
-0.07670861482620239 -0.005514452233910561 0.047513339668512344
-0.1034461110830307 -0.05008425936102867 -0.07079939544200897
0.010688860900700092 -0.11619465053081512 -0.04672786965966225
-0.0673472136259079 0.03011932596564293 -0.009386487305164337
0.053740695118904114 -0.05816870182752609 0.036058828234672546
-0.09144982695579529 -0.030209770426154137 0.0010770740918815136
0.03851722925901413 -0.1188087910413742 -0.09932949393987656
-0.07507294416427612 -0.017803380265831947 0.0001320259179919958
-0.019214756786823273 -0.04110459238290787 0.2672509551048279
-0.059879422187805176 0.04310239106416702 -0.06238403916358948
-0.04422739893198013 -0.03508872538805008 0.15720237791538239
0.05246977135539055 -0.09788377583026886 0.0138421431183815
-0.07396741211414337 0.0014951862394809723 0.027854889631271362
0.08413000404834747 -0.057111240923404694 -0.026163248345255852
-0.07579170912504196 -0.022099457681179047 0.04016079381108284
-0.08692769706249237 -0.03298666700720787 -0.004924055188894272
0.09232275187969208 -0.0556260384619236 -0.03260989114642143
-0.086125947535038 -0.027032364159822464 0.04592311382293701
0.07935740053653717 -0.052934423089027405 -0.027345404028892517
-0.08249004185199738 -0.019607514142990112 -0.021705135703086853
0.050236672163009644 -0.06448253989219666 -0.008146770298480988
-0.09109430015087128 -0.03739125281572342 0.0006019081920385361
0.1191079318523407 -0.08935130387544632 -0.21519535779953003
-0.08235925436019897 -0.001499079167842865 -0.05450809746980667
-0.11676962673664093 -0.04609004408121109 -0.17672424018383026
-0.0874282568693161 -0.038104280829429626 -0.019941069185733795
0.06479537487030029 -0.05617327615618706 0.02553383633494377
-0.08073820173740387 0.015208898112177849 -0.1261192411184311
-0.04196031391620636 0.01149547379463911 0.07906369864940643
-0.07040940225124359 0.005344518460333347 0.02477147988975048
-0.06892311573028564 0.024551982060074806 -0.010406093671917915
-0.024511141702532768 0.013385669328272343 0.14089155197143555
0.06349744647741318 -0.060989294201135635 0.030214877799153328
-0.03651069849729538 -0.09547367691993713 0.06778275966644287
0.0682491734623909 -0.05527091771364212 -0.04413304477930069
-0.06522974371910095 -0.11999338865280151 -0.24006740748882294
-0.053211189806461334 0.013022861443459988 0.14333292841911316
-0.11218221485614777 0.006279762834310532 -0.17767244577407837
-0.08443140983581543 0.03620195761322975 -0.20253494381904602
-0.08272463828325272 -0.017574887722730637 -0.021009856835007668
0.07030662894248962 -0.05046001449227333 0.014452988281846046
-0.060816965997219086 -0.007735021412372589 0.07803454995155334
0.05125939100980759 -0.10352203249931335 -0.03583155572414398
-0.05840827524662018 0.07797156274318695 -0.3642653226852417
-0.09035483002662659 -0.03215785697102547 0.0007369667291641235
0.0299946591258049 -0.11214780807495117 -0.06573481857776642
-0.06833937019109726 -0.13227690756320953 -0.17068198323249817
0.0240488164126873 -0.09402724355459213 0.04518358036875725
-0.07349424809217453 -0.01110546849668026 0.05078417807817459
0.0018739085644483566 -0.03904186189174652 0.2576255798339844
0.08668427169322968 -0.055729158222675323 -0.02660723403096199
0.030624713748693466 -0.09283226728439331 0.005162149202078581
-0.08611808717250824 -0.031491681933403015 -0.010931357741355896
0.056526556611061096 -0.05556066334247589 -0.030914779752492905
-0.07458214461803436 -0.0023295581340789795 0.014339063316583633
-0.021380655467510223 -0.05008676275610924 0.38362428545951843
0.0829416960477829 -0.11422453820705414 -0.3728724718093872
-0.0024512670934200287 -0.04411349445581436 0.19298981130123138
0.04445907101035118 -0.09688635915517807 0.028051577508449554
-0.07394183427095413 -0.01813529059290886 -0.0024057766422629356
-0.07005384564399719 -0.02437949739396572 0.04282060265541077
-0.08511175215244293 -0.0748412013053894 -0.18303075432777405
-0.13353735208511353 -0.02702362835407257 -0.2254706621170044
0.05808192864060402 -0.11023248732089996 -0.1067173108458519
-0.04602993652224541 0.006942327134311199 0.08894834667444229
-0.09493651986122131 -0.03119714930653572 -0.06580182164907455
-0.10609923303127289 -0.05721744894981384 -0.10585302859544754
0.08381828665733337 -0.05443928390741348 -0.028016233816742897
-0.10187165439128876 -0.03412703052163124 -0.06931031495332718
-0.038567427545785904 -0.00029747374355793 -0.3747614920139313
-0.07431180030107498 -0.018125958740711212 -0.002459190785884857
0.07356390357017517 -0.053460560739040375 0.023657426238059998
0.07762109488248825 -0.05546151474118233 0.0008854018524289131
-0.05345709249377251 0.0597713477909565 -0.23811441659927368
0.08225932717323303 -0.05749267712235451 -0.024293022230267525
-0.08512604236602783 -0.035671673715114594 0.0023996662348508835
0.05471624806523323 -0.0749613493680954 0.0055361101403832436
-0.07916470617055893 -0.017566878348588943 -0.01768341287970543
-0.12326855957508087 0.021505746990442276 -0.24855458736419678
-0.0748535543680191 -0.01787887141108513 -0.0015552043914794922
-0.08911976963281631 -0.026264820247888565 -0.0011133737862110138
-0.07533703744411469 -0.023742690682411194 -0.0059134215116500854
0.05027144402265549 -0.0914199948310852 0.028653811663389206
-0.0657723993062973 0.04777848720550537 -0.26607176661491394
0.02825513854622841 -0.11131034791469574 -0.0657924935221672
-0.10653237998485565 -0.04779055714607239 -0.06721994280815125
0.0549725778400898 -0.11542695760726929 -0.4035998582839966
-0.08114343881607056 -0.021988943219184875 -0.022894825786352158
0.0848943218588829 -0.054232798516750336 -0.023849427700042725
0.08720547705888748 -0.0581052266061306 -0.055885639041662216
0.051694102585315704 -0.05979716777801514 -0.005774732679128647
-0.03918904811143875 0.0011876728385686874 0.089338518679142
0.10123974084854126 -0.05082054063677788 -0.05410735309123993
-0.023671196773648262 -0.03885192796587944 0.3428669571876526
-0.09169656783342361 0.05852857232093811 -0.3352365791797638
-0.00557110458612442 -0.060386113822460175 0.21535775065422058
-0.10542324930429459 -0.06089942902326584 -0.10689527541399002
0.10844245553016663 -0.04405146837234497 -0.1515301764011383
-0.0779816210269928 -0.006084306165575981 0.050762467086315155
0.060154758393764496 -0.07749877870082855 -0.029343515634536743
-0.08916215598583221 -0.03288973867893219 0.010345966555178165
-0.033786144107580185 -0.08257682621479034 0.1005474328994751
-0.08312363922595978 -0.01682777889072895 -0.021081354469060898
-0.07448595762252808 -0.016216740012168884 0.0005043949349783361
0.13872836530208588 -0.06751801818609238 -0.25107085704803467
0.04357709735631943 -0.07300732284784317 0.022505566477775574
0.06100994721055031 -0.08669619262218475 -0.0760413408279419
-0.07459190487861633 -0.021776286885142326 0.03959669917821884
0.042090415954589844 -0.08750370144844055 0.01348024420440197
-0.09548979997634888 -0.06107758358120918 0.013112366199493408
0.10307973623275757 -0.07976559549570084 -0.15938620269298553
-0.08642347157001495 -0.02686898037791252 -0.017422646284103394
-0.08832142502069473 -0.03858396038413048 -0.020643629133701324
-0.09214425832033157 -0.061721134930849075 0.037729475647211075
-0.01763879507780075 -0.04320356994867325 0.42078858613967896
0.03728441894054413 -0.09555916488170624 0.03178822994232178
-0.002821120899170637 -0.026514731347560883 0.23967303335666656
-0.10205008834600449 -0.06927451491355896 -0.05914457142353058
0.016402550041675568 -0.09470748901367188 0.003368575591593981
0.08827611804008484 -0.05283796414732933 -0.029788417741656303
-0.09984571486711502 -0.028516167774796486 -0.07148294150829315
0.025391481816768646 -0.08900235593318939 0.017489643767476082
-0.08963792771100998 -0.0669141486287117 -0.28433758020401
-0.0600549578666687 0.0581878125667572 -0.40160173177719116
-0.13083168864250183 -0.0034548258408904076 -0.19538551568984985
-0.02553083561360836 -0.0023009441792964935 0.14819133281707764
-0.07349231094121933 0.0015669241547584534 0.016482193022966385
-0.0690009742975235 0.056130118668079376 -0.17192620038986206
0.01872292347252369 -0.12335946410894394 -0.13471178710460663
-0.08649325370788574 -0.0336996465921402 -0.021710524335503578
0.0730820819735527 -0.05270454287528992 0.02138007991015911
-0.05688420310616493 -0.004484566859900951 0.07993349432945251
-0.07476429641246796 -0.001001894474029541 0.016216803342103958
-0.07180769741535187 0.008871699683368206 0.01981194317340851
-0.04063953459262848 -0.1265874058008194 -0.09783589839935303
0.04946336895227432 -0.06829500943422318 0.016239995136857033
0.06253058463335037 -0.05537697300314903 -0.030378639698028564
-0.04128311574459076 0.005021128803491592 0.08202069252729416
-0.10806606709957123 0.007923288270831108 -0.3102991580963135
-0.07819179445505142 0.03414112329483032 -0.15721739828586578
0.12083514779806137 -0.09698209911584854 -0.2628835439682007
0.08517191559076309 -0.056128449738025665 -0.027170874178409576
0.05401720106601715 -0.09190934151411057 -0.04853539541363716
0.08488922566175461 -0.05928787589073181 -0.025742262601852417
0.08511032164096832 -0.05826617032289505 -0.026464512571692467
0.08701439946889877 -0.054931268095970154 -0.028007442131638527
-0.03193775936961174 -0.0013877339661121368 0.14513131976127625
0.06315551698207855 -0.06086717173457146 -0.021127939224243164
-0.08662903308868408 -0.03339984267950058 -0.007766194641590118
-0.13022097945213318 0.006314950063824654 -0.2512921988964081
-0.08847083151340485 -0.03160996735095978 -0.0009478367865085602
-0.08894062042236328 0.022258449345827103 -0.09246516227722168
-0.09087396413087845 -0.03401908278465271 -0.021489795297384262
0.051721833646297455 -0.07035864889621735 0.0038648592308163643
-0.046631764620542526 -0.0015730895102024078 0.08888275921344757
-0.11097891628742218 -0.07161940634250641 -0.12812280654907227
-0.07222098112106323 0.07720725238323212 -0.28434309363365173
0.056605201214551926 -0.05867524445056915 -0.006970495916903019
-0.04532310739159584 -0.11249867081642151 0.045594945549964905
-0.03412342816591263 -0.00848383642733097 0.1439124345779419
0.019183767959475517 -0.04544122889637947 0.24327988922595978
-0.10577866435050964 -0.06414227187633514 -0.10231661796569824
0.01616009697318077 -0.03747043386101723 0.13694965839385986
0.05157863348722458 -0.0682167261838913 0.007699175272136927
0.05566874518990517 -0.06422118842601776 0.006899641826748848
-0.06758879870176315 0.04243122786283493 -0.0952170118689537
0.002609844319522381 -0.05121185630559921 0.23490625619888306
0.041712623089551926 -0.11162688583135605 -0.08628055453300476
-0.040968190878629684 0.0017888769507408142 0.08430159091949463
-0.07340923696756363 0.003838036209344864 0.02034391276538372
-0.04347078129649162 0.010764891281723976 0.08661974966526031
-0.05048742890357971 0.03965027257800102 -0.04327671229839325
-0.0791526734828949 -0.014935726299881935 -0.021394897252321243
0.02681257203221321 -0.08901284635066986 -2.3826956748962402e-05
0.04287516325712204 -0.11001711338758469 -0.06094270944595337
-0.11376447975635529 -0.041786644607782364 -0.14374755322933197
0.12939323484897614 -0.05705428496003151 -0.4030289351940155
-0.08465023338794708 -0.0369500108063221 -0.018687954172492027
0.0037488772068172693 -0.03625273331999779 0.24161134660243988
-0.10670743137598038 -0.05335332453250885 -0.0593273788690567
-0.11690271645784378 -0.03681035339832306 -0.17530468106269836
-0.09357523918151855 -0.07319971919059753 -0.06528684496879578
-0.07409977912902832 0.006069965660572052 0.021479912102222443
-0.10483139008283615 -0.045961495488882065 -0.06673464924097061
0.09546580910682678 -0.06797432154417038 -0.12116801738739014
0.06161022186279297 -0.06107533350586891 -0.020572083070874214
0.07062611728906631 -0.052867159247398376 0.022901423275470734
-0.0625360980629921 0.0022185035049915314 0.07225368916988373
0.03836992010474205 -0.09144287556409836 0.013099155388772488
-0.06330154836177826 0.0479617603123188 -0.06908842921257019
0.07647540420293808 -0.056033894419670105 -0.04107842594385147
-0.042662642896175385 -0.006109941750764847 0.09100672602653503
-0.07941465079784393 -0.06696860492229462 -0.38610532879829407
-0.034947481006383896 0.00484868511557579 0.14665652811527252
0.08080334216356277 -0.057448506355285645 -0.026401089504361153
0.0047400230541825294 -0.12904267013072968 -0.05675220116972923
0.07720495015382767 -0.055540286004543304 -0.0018431609496474266
-0.08419996500015259 -0.0995941013097763 -0.023327531293034554
0.03915988281369209 -0.07441229373216629 0.021838614717125893
-0.026267439126968384 -0.03191224858164787 0.3834829330444336
0.08682307600975037 -0.045381367206573486 -0.3953936696052551
0.02878808043897152 -0.09615042805671692 0.021343491971492767
0.07544068247079849 -0.11378271877765656 -0.20065221190452576
0.06667818874120712 0.017770759761333466 -0.3723379671573639
0.09462705254554749 -0.11311358958482742 -0.2247745394706726
0.06287679076194763 -0.053576722741127014 0.010980075225234032
0.03401203081011772 -0.10483516752719879 -0.019649043679237366
0.10443782061338425 -0.05153994262218475 -0.05929609388113022
-0.09522174298763275 -0.034233443439006805 -0.07410645484924316
-0.09322981536388397 -0.09929824620485306 -0.1788170039653778
0.07476086169481277 -0.04917880520224571 0.02098124846816063
-0.07271628081798553 0.005215933080762625 0.016303610056638718
0.08563229441642761 -0.0556216798722744 -0.02753414213657379
0.0042867399752140045 -0.08896355330944061 0.04516230523586273
0.048962559551000595 -0.07229048758745193 0.005430387333035469
-0.08376961946487427 -0.08435385674238205 0.05245098099112511
-0.08104405552148819 -0.006349595263600349 -0.013464308343827724
-0.08024416118860245 -0.023011188954114914 -0.02477692812681198
-0.10482387244701385 -0.050024546682834625 -0.08611272275447845
0.04326246678829193 -0.11609485745429993 -0.12344008684158325
-0.10981105268001556 -0.04604017361998558 -0.15895524621009827
0.049329228699207306 -0.10482583940029144 -0.047201767563819885
-0.060904912650585175 0.005335554946213961 0.09304565191268921
-0.10037386417388916 -0.06255684047937393 -0.17535226047039032
-0.0776357352733612 -0.014600854367017746 0.0005739293992519379
-0.07460775226354599 -0.054091788828372955 0.08870325982570648
-0.08337729424238205 -0.026973914355039597 -0.034004390239715576
-0.032168250530958176 -0.13244056701660156 -0.061808809638023376
-0.039759617298841476 0.006697897799313068 0.08623546361923218
-0.05505798012018204 0.003600022289901972 0.06192207336425781
0.06520405411720276 -0.05689806118607521 -0.03412140533328056
0.07852271944284439 -0.04961632937192917 0.007434344384819269
-0.07984116673469543 -0.010895881801843643 -0.002084920182824135
0.005607501603662968 -0.03776782751083374 0.2832951247692108
-0.056770388036966324 0.04646638408303261 -0.04273056238889694
-0.11126992851495743 -0.05231181159615517 -0.05665591359138489
-0.09204481542110443 -0.026980023831129074 -0.027858871966600418
0.0018919557332992554 -0.0408354327082634 0.24884244799613953
-0.07629092782735825 -0.015378688462078571 0.049308232963085175
-0.0431949757039547 -0.13283559679985046 -0.21871186792850494
-0.08052093535661697 -0.01851833611726761 -0.02189907804131508
-0.08085179328918457 -0.02787245437502861 -0.013757821172475815
0.08712030947208405 -0.05490436404943466 -0.02858097106218338
-0.004309231415390968 -0.09174227714538574 0.02540711872279644
-0.02505633234977722 -0.02688830904662609 0.3877258598804474
-0.03934212028980255 0.006515988614410162 0.07973458617925644
-0.09283734858036041 -0.004152570851147175 -0.10840372741222382
0.05319299176335335 -0.09381541609764099 -0.07049719989299774
-0.08950018137693405 -0.02989301085472107 0.005537097342312336
-0.07640666514635086 -0.016027847304940224 -0.005446549504995346
-0.07658457010984421 0.0014043068513274193 0.013995818793773651
-0.09178236871957779 -0.025694815441966057 -0.05663197487592697
0.031944677233695984 -0.11263373494148254 -0.0684289038181305
0.006590266712009907 -0.09639531373977661 0.021512985229492188
0.04798328876495361 -0.031854018568992615 0.11007073521614075
-0.06931614130735397 0.0016581006348133087 0.018232611939311028
-0.00535588338971138 -0.09290797263383865 0.024920305237174034
-0.06160442531108856 0.0593201220035553 -0.1645071655511856
-0.08041989803314209 -0.030309390276670456 -0.019387438893318176
-0.00019172905012965202 -0.13138309121131897 -0.20257262885570526
0.04288637265563011 -0.03033597208559513 0.1077885627746582
0.11857027560472488 -0.03931085392832756 -0.37829214334487915
0.05082216113805771 -0.07198353856801987 0.002594759687781334
-0.10307805985212326 -0.01210178155452013 -0.11377084255218506
-0.10191566497087479 -0.05934181436896324 -0.06038458272814751
-0.0803254097700119 -0.02095314860343933 -0.022414032369852066
0.054628584533929825 -0.08748137950897217 0.04709019511938095
0.09845524281263351 -0.05202368274331093 -0.05731319263577461
0.045137837529182434 -0.057710882276296616 -0.009199611842632294
0.015595149248838425 -0.09523700177669525 0.01095705758780241
-0.036593470722436905 -0.008454747498035431 0.14354321360588074
0.053655508905649185 -0.1100047379732132 -0.14180925488471985
0.08532928675413132 -0.06139190495014191 -0.024674538522958755
-0.1088113859295845 -0.046828195452690125 -0.09928388893604279
-0.021431485190987587 -0.04612121358513832 0.31152471899986267
-0.10339334607124329 -0.021938452497124672 -0.08734865486621857
0.04716888815164566 -0.10053588449954987 0.024523675441741943
0.08870033174753189 -0.060176782310009 -0.026754073798656464
-0.07298795878887177 0.0011158846318721771 0.02056134305894375
0.052267517894506454 -0.0774940475821495 -0.03021707572042942
-0.08210620284080505 -0.008488787338137627 -0.10632973909378052
0.024268988519906998 -0.11266492307186127 -0.06106667220592499
-0.07744570076465607 -0.02893468365073204 0.04499237984418869
-0.002658891724422574 -0.035441286861896515 0.29505282640457153
-0.13209190964698792 -0.016336828470230103 -0.25130271911621094
0.09517847001552582 -0.05393939092755318 -0.06431705504655838
0.049459584057331085 -0.057313233613967896 -0.01590028777718544
-0.08518315851688385 0.040098607540130615 -0.3989185392856598
0.049557432532310486 -0.05612673982977867 -0.009051728993654251
0.05116724222898483 -0.07432526350021362 0.010724881663918495
-0.09589511901140213 -0.08626430481672287 -0.1303142011165619
-0.08106235414743423 -0.016188781708478928 -0.022605858743190765
-0.12394564598798752 -0.04079104959964752 -0.2452995926141739
-0.0855165421962738 -0.038747578859329224 -0.02281935326755047
-0.09999710321426392 -0.0831250548362732 -0.22929954528808594
-0.07144133001565933 -0.031613387167453766 0.06775885820388794
0.08329328894615173 -0.05314287543296814 -0.030474040657281876
0.08750564604997635 -0.0568409338593483 -0.026848282665014267
0.016697958111763 -0.0941769927740097 0.03479566425085068
0.08494716882705688 -0.05481075868010521 -0.019679173827171326
0.052906282246112823 -0.09160518646240234 0.04871821776032448
-0.09499602019786835 -0.033811770379543304 -0.022491944953799248
0.11221864819526672 -0.045359253883361816 -0.1487114429473877
-0.07491409778594971 -0.018511252477765083 -0.009307701140642166
0.05439045652747154 -0.07775156199932098 -0.027307895943522453
-0.11275798082351685 -0.07766558974981308 -0.12323629856109619
-0.10944683104753494 -0.04168839752674103 -0.05831807851791382
0.007036072667688131 -0.037283796817064285 0.2386188507080078
0.03333767503499985 -0.094598188996315 0.02588144689798355
0.0556061826646328 -0.06687506288290024 -0.00178561732172966
-0.05983593314886093 0.06261216849088669 -0.1424049437046051
-0.059604085981845856 0.02043239213526249 0.09640303254127502
0.08815435320138931 -0.05717260390520096 -0.028484918177127838
0.06103731691837311 -0.058846987783908844 -0.0317368246614933
0.04790381342172623 -0.07749323546886444 -0.039164621382951736
-0.08858735859394073 -0.02362595498561859 -0.02534167468547821
-0.07475725561380386 -0.031163949519395828 0.06211453676223755
-0.08497799187898636 -0.015350207686424255 -0.026641223579645157
0.03466329351067543 -0.09626387059688568 0.03475083410739899
-0.03134593740105629 -0.06590515375137329 0.3865191340446472
0.12843726575374603 -0.09026466310024261 -0.23804119229316711
0.0891059935092926 -0.0769437700510025 -0.12285366654396057
0.05232497304677963 -0.071327805519104 0.006432483904063702
-0.0993734747171402 -0.09387215971946716 -0.06410832703113556
0.03781036287546158 -0.12170682102441788 -0.10377169400453568
-0.0004458744078874588 -0.12571585178375244 -0.060022491961717606
-0.004295583814382553 -0.031638212502002716 0.2337275743484497
-0.07286765426397324 0.024570954963564873 -0.003864437807351351
-0.0723501443862915 0.020062163472175598 -0.00249665230512619
-0.07193437963724136 0.0038232412189245224 0.01932978630065918
-0.11050494015216827 -0.051756761968135834 -0.1469029039144516
0.05399812385439873 -0.07000435888767242 0.007867852225899696
-0.11559414863586426 -0.019097603857517242 -0.1507914960384369
-0.08627606183290482 -0.03939497098326683 0.0037581853102892637
-0.09316843748092651 -0.03585021197795868 -0.009349469095468521
-0.008321888744831085 -0.04826321080327034 0.33272939920425415
-0.02186325006186962 -0.09472140669822693 0.054485052824020386
0.05514393374323845 -0.09112128615379333 -0.049148596823215485
0.04972803220152855 -0.10716242343187332 -0.054645586758852005
-0.09751053154468536 -0.016524726524949074 -0.06760962307453156
-0.08834466338157654 -0.036264657974243164 -0.020183049142360687
0.06240365654230118 -0.05934998393058777 -0.03285931795835495
0.06705255806446075 -0.08273884654045105 -0.07076095044612885
-0.08615898340940475 -0.03961151838302612 -0.021809305995702744
0.0505087748169899 -0.09149378538131714 -0.06226591020822525
-0.09922541677951813 -0.05996491014957428 -0.1860092133283615
-0.0793926790356636 -0.01863991655409336 -0.017336919903755188
-0.09921881556510925 -0.023604722693562508 -0.0634184330701828
-0.07342882454395294 -0.027406547218561172 0.037532128393650055
-0.07830475270748138 0.032349590212106705 -0.1248357743024826
-0.09353326261043549 -0.03362537547945976 -0.003003351390361786
-0.07471238821744919 -0.014930041506886482 0.0010125046828761697
-0.06489349156618118 0.027317067608237267 -0.012794388458132744
-0.032083090394735336 -0.1453446000814438 -0.33909085392951965
-0.07196253538131714 -0.01912076026201248 -0.00460416916757822
0.06378935277462006 -0.053804852068424225 -0.02965734153985977
-0.07819431275129318 0.015834329649806023 0.0047917794436216354
0.046031489968299866 -0.03396254777908325 0.11484429240226746
-0.0009793899953365326 -0.03726102411746979 0.23637637495994568
0.050878800451755524 -0.10766124725341797 -0.14782124757766724
-0.10160098969936371 -0.054339297115802765 -0.07002880424261093
0.012531980872154236 -0.02071000076830387 0.1993030309677124
0.018520651385188103 -0.09440521895885468 0.009922103025019169
-0.09383691102266312 -0.05763743445277214 0.024244477972388268
0.1318354308605194 -0.0569782592356205 -0.28110748529434204
0.04589344561100006 -0.10901951789855957 -0.06476474553346634
-0.08927029371261597 -0.02578827179968357 -0.012381837703287601
-0.10157370567321777 -0.05181632936000824 -0.06529298424720764
-0.02539927326142788 0.0014315750449895859 0.1448727399110794
0.04537901282310486 -0.11654079705476761 -0.24524922668933868
-0.034907177090644836 -0.012485802173614502 0.14468057453632355
-0.0747746154665947 -0.0069696251302957535 0.045940738171339035
0.08493123203516006 -0.05794604867696762 -0.026070185005664825
-0.07601762562990189 -0.11244303733110428 0.031909700483083725
0.08249641954898834 -0.05696862190961838 -0.02583663910627365
-0.07788684219121933 -0.019281456246972084 -0.002647171262651682
-0.018984781578183174 -0.055514611303806305 0.2575059235095978
-0.08789652585983276 -0.028337793424725533 -0.011417154222726822
-0.055693600326776505 0.04408639669418335 -0.22622394561767578
0.030709851533174515 -0.06742411106824875 0.10956615209579468
0.026439160108566284 -0.07054631412029266 0.08068138360977173
0.05376051366329193 -0.06423738598823547 -0.021049901843070984
-0.022848714143037796 -0.12738393247127533 -0.11754555255174637
0.05768744647502899 -0.06662435084581375 0.0043711112812161446
-0.07970685511827469 0.007689906284213066 0.020846709609031677
-0.0976339653134346 -0.040977589786052704 0.012647987343370914
-0.02504241280257702 -0.0009310003370046616 0.13343402743339539
-0.08147893100976944 -0.01768147014081478 -0.03475954383611679
-0.08750289678573608 -0.03779059648513794 0.007127703167498112
0.05108100175857544 -0.06381328403949738 0.04947669059038162
-0.014309791848063469 -0.019542405381798744 0.26982295513153076
0.05213959515094757 -0.06769002228975296 0.00032135844230651855
-0.12206826359033585 0.018019048497080803 -0.27089038491249084
-0.0945635512471199 -0.08130184561014175 -0.06276076287031174
0.07859943807125092 -0.052599065005779266 0.02053220383822918
-0.10215681791305542 0.03237724304199219 -0.23832575976848602
0.02284529060125351 -0.10499211400747299 -0.013485733419656754
0.03912042826414108 -0.07140902429819107 0.009485078044235706
-0.08145196735858917 -0.021264037117362022 0.0384441502392292
0.07300109416246414 -0.08497558534145355 -0.1398439258337021
0.10245344787836075 -0.05605375021696091 -0.08424955606460571
-0.09815113246440887 -0.05167018622159958 -0.08544537425041199
-0.08775482326745987 -0.029003191739320755 -0.025593020021915436
0.043084606528282166 -0.02889135107398033 0.1093936562538147
-0.09375999867916107 -0.031793199479579926 0.002272851299494505
-0.0931013897061348 -0.02721574530005455 -0.06051264703273773
-0.012682890519499779 -0.023138662800192833 0.2834956645965576
-0.1064482182264328 -0.04970991238951683 -0.09923676401376724
0.05061068385839462 -0.06845509260892868 0.0084871556609869
0.05619300156831741 -0.05430508404970169 0.04452972114086151
-0.0860828310251236 -0.03673397749662399 -0.017764439806342125
-0.09838150441646576 -0.07052211463451385 -0.1783030778169632
0.0948052629828453 -0.05643089860677719 -0.024189993739128113
-0.0883379578590393 -0.03150041401386261 0.0028046835213899612
0.11579014360904694 -0.03280750289559364 -0.32747501134872437
-0.08900853991508484 -0.033061571419239044 -0.002010874915868044
-0.08663037419319153 -0.0398588702082634 -0.35195139050483704
-0.08845651149749756 -0.03277614712715149 -0.004916887730360031
0.05460497736930847 -0.05818658322095871 -0.03562471270561218
0.06406047195196152 -0.06398426741361618 -0.04174211621284485
0.05894790217280388 -0.07296589016914368 -0.02448244020342827
-0.1255195587873459 -0.0057360026985406876 -0.19476842880249023
0.08008433133363724 -0.08727315068244934 -0.08461114764213562
0.05828563868999481 -0.0618956983089447 -0.02130647748708725
-0.09416396170854568 -0.02747962810099125 -0.05144372582435608
-0.03812460973858833 -0.1458326280117035 -0.18423597514629364
-0.09722520411014557 -0.027284611016511917 -0.05356086418032646
0.07037420570850372 -0.0548909492790699 0.016479330137372017
-0.03898826241493225 -0.0015446655452251434 0.08011606335639954
-0.10715462267398834 -0.06409154087305069 -0.11064963042736053
0.03197691589593887 -0.09055513143539429 0.0022663199342787266
0.1049065887928009 -0.05205576866865158 -0.05635306239128113
-0.12235748767852783 -0.015442973002791405 -0.17481301724910736
-0.07752024382352829 -0.10615833848714828 -0.2112889289855957
0.03435065224766731 -0.09892942011356354 0.01858331635594368
0.08709663897752762 -0.05553267523646355 -0.023489627987146378
-0.08803946524858475 -0.027356309816241264 -0.01241857185959816
0.0499737523496151 -0.10204056650400162 -0.08200496435165405
-0.0724710151553154 -0.0008071810007095337 0.022809475660324097
0.010631726123392582 -0.14204272627830505 -0.32684627175331116
-0.06982026994228363 0.010760467499494553 -0.003064663615077734
-0.006278030574321747 -0.03809286281466484 0.27208465337753296
-0.04656829684972763 0.009543382562696934 0.09035521745681763
-0.08811607956886292 -0.031564563512802124 0.00039422139525413513
0.003562603145837784 -0.033238884061574936 0.2568734288215637
-0.02516004629433155 0.0029048994183540344 0.13871870934963226
-0.061657294631004333 0.08703780919313431 -0.2695985734462738
-0.0934535562992096 -0.044654738157987595 -0.3119605779647827
-0.0760377049446106 0.0076309433206915855 0.013085126876831055
0.03353338688611984 -0.09011068195104599 0.004167800769209862
-0.03698471561074257 -0.008879989385604858 0.1472831517457962
-0.07857248932123184 -0.022606773301959038 -0.02048979513347149
-0.09056586027145386 -0.028673093765974045 -0.01693762093782425
0.08506490290164948 -0.05724450200796127 -0.026935894042253494
0.04936671629548073 -0.09230895340442657 -0.06592079997062683
-0.0020730355754494667 -0.1237718015909195 -0.14033176004886627
0.10484621673822403 -0.10102672874927521 -0.2908170223236084
-0.09754380583763123 -0.03451615571975708 0.010439060628414154
-0.010904427617788315 -0.04316829890012741 0.24687515199184418
-0.01378224603831768 -0.14141064882278442 -0.2477990835905075
0.005360144190490246 -0.03734255209565163 0.2293364256620407
0.017866946756839752 -0.03495441749691963 0.15320974588394165
0.07622034847736359 -0.05370136350393295 0.01988580822944641
0.08856755495071411 -0.05400126427412033 -0.02970597892999649
0.03980125114321709 -0.1125812903046608 -0.06063135713338852
0.05470695346593857 -0.10766518115997314 -0.04878683760762215
0.007537954021245241 -0.02831590734422207 0.15455882251262665
-0.056792981922626495 0.06328001618385315 -0.17970943450927734
-0.09044080972671509 -0.02988477051258087 -0.02913161925971508
0.04960108548402786 -0.10961628705263138 -0.0501798614859581
-0.09333696961402893 0.03554670512676239 -0.35795560479164124
-0.10335583984851837 -0.049441561102867126 -0.08196581900119781
0.030029024928808212 -0.10464146733283997 -0.014248497784137726
-0.10655151307582855 -0.06225351244211197 -0.05739130079746246
0.006301927380263805 -0.11843952536582947 -0.06424589455127716
0.051864780485630035 -0.061565324664115906 -0.017336538061499596
-0.0193486288189888 -0.03291374072432518 0.3504346013069153
-0.024795634672045708 4.4881366193294525e-05 0.14620459079742432
-0.013170847669243813 -0.04995765909552574 0.34893253445625305
-0.09470045566558838 -0.028447460383176804 -0.003206295892596245
0.03794156014919281 -0.09524604678153992 0.027512408792972565
-0.006352117285132408 -0.04707736521959305 0.26365190744400024
-0.0870230495929718 -0.03373941034078598 -0.030765162780880928
-0.0756322592496872 -0.012640985660254955 -0.0002961494028568268
-0.09575055539608002 -0.025388114154338837 -0.0549369752407074
-0.06332219392061234 -0.12087631225585938 -0.14475703239440918
0.0074490513652563095 -0.1243647038936615 -0.07998576015233994
-0.07294386625289917 -0.01315920241177082 0.0029890602454543114
0.0059982966631650925 -0.05100889503955841 0.20309382677078247
0.07250730693340302 -0.04683968797326088 -0.00686268974095583
0.014037811197340488 -0.09886209666728973 0.011477010324597359
-0.030566468834877014 -0.040444791316986084 0.36994117498397827
0.052518051117658615 -0.0700976550579071 0.015451843850314617
0.06844352930784225 -0.05114974081516266 0.010009055957198143
0.044062837958335876 -0.0610794872045517 -0.003093377687036991
-0.021454356610774994 -0.0323624461889267 0.2758946418762207
-0.07988262176513672 -0.018205370754003525 -0.019387995824217796
0.08481812477111816 -0.05384692922234535 -0.02520338073372841
-0.08911744505167007 -0.04151283949613571 0.05150743946433067
-0.024177104234695435 -0.02325424924492836 0.37584441900253296
0.05771120265126228 -0.05770666152238846 -0.019488755613565445
0.08067668974399567 -0.05517019331455231 -0.02575794607400894
-0.08466173708438873 -0.043092280626297 -0.02631499618291855
0.022590771317481995 -0.12753352522850037 -0.2562744915485382
-0.0932047963142395 -0.03287553787231445 0.006058665923774242
-0.0723806768655777 0.034090202301740646 -0.14823827147483826
-0.06866642832756042 0.0877024456858635 -0.29669085144996643
0.020837482064962387 -0.1394355595111847 -0.11511170119047165
0.06233204901218414 -0.056472502648830414 -0.03634681552648544
-0.10435613244771957 0.02700316347181797 -0.1888437569141388
0.05077611654996872 -0.09300011396408081 -0.06449346244335175
0.03815573453903198 -0.0763867124915123 0.025821778923273087
-0.0891541987657547 -0.037095192819833755 -0.0619540810585022
-0.0699920505285263 -0.01624043472111225 0.0004904558882117271
-0.07307059317827225 -0.0179313775151968 0.0007963627576828003
-0.054645754396915436 0.0009489133954048157 0.07180190086364746
0.12426561117172241 -0.06866174191236496 -0.19225242733955383
0.05148942768573761 -0.07517844438552856 0.02098112180829048
-0.04335265979170799 -0.13640843331813812 -0.30656683444976807
-0.03720063716173172 -0.014984332025051117 0.14620423316955566
0.03684485703706741 -0.09356506913900375 0.001399315195158124
0.05106467753648758 -0.10504479706287384 -0.036747533828020096
-0.06561213731765747 0.019835036247968674 0.07710567861795425
-0.07555405795574188 -0.005561541765928268 0.016677316278219223
-0.09243830293416977 -0.02789359912276268 -0.0022847186774015427
-0.012216230854392052 -0.05082465335726738 0.25158053636550903
-0.10739128291606903 -0.05108325183391571 -0.06021948531270027
-0.09449923783540726 -0.08113088458776474 -0.01742212101817131
0.04168155416846275 -0.0927550420165062 0.01274658553302288
0.04720751941204071 -0.0829760879278183 -0.12925927340984344
0.045338865369558334 -0.13581237196922302 -0.3070768117904663
-0.05226840823888779 -0.09067846089601517 0.12051623314619064
-0.08812876790761948 -0.025721075013279915 0.0016926852986216545
0.10720938444137573 -0.04468518868088722 -0.10707449167966843
0.08278946578502655 -0.05485634133219719 -0.02642160654067993
-0.10728421807289124 -0.0531473308801651 -0.06515753269195557
0.024716448038816452 -0.11400552093982697 -0.06737551093101501
-0.10927821695804596 -0.020586002618074417 -0.33590468764305115
-0.08847472071647644 -0.03302718698978424 -7.000565528869629e-05
-0.08883805572986603 -0.02888777107000351 -0.014139318838715553
0.046145759522914886 -0.10091587156057358 -0.075951486825943
-0.0929054394364357 -0.02221956104040146 -0.4113822877407074
-0.10476670414209366 -0.05268828570842743 -0.08687082678079605
-0.10012802481651306 -0.04852241277694702 -0.09796778112649918
0.05434795096516609 -0.08969209343194962 -0.04790817201137543
-0.04291359335184097 0.0042005181312561035 0.08462567627429962
0.004668878857046366 -0.11797303706407547 -0.03651950880885124
-0.07463725656270981 0.00678421463817358 0.020932907238602638
0.051693253219127655 -0.06574483215808868 0.04195316508412361
-0.10225459188222885 -0.06213715299963951 -0.06234978511929512
-0.08990778028964996 -0.08684524148702621 0.009063737466931343
0.05233322083950043 -0.06907666474580765 0.012217734009027481
-0.04284822195768356 -0.13184213638305664 -0.149660125374794
-0.076189324259758 -0.02050318755209446 -0.0005535385571420193
-0.015313374809920788 -0.1019117534160614 0.017423372715711594
-0.032107800245285034 -0.05789116770029068 0.43123185634613037
0.0612964890897274 -0.07493863999843597 -0.027590539306402206
-0.09392133355140686 -0.029535796493291855 -0.017383480444550514
-0.007272276096045971 -0.05688347667455673 0.2335706502199173
-0.0014973729848861694 -0.15326640009880066 -0.31198298931121826
