0.18100105226039886 -0.07398906350135803 -0.21566686034202576
-0.07986146211624146 0.026407930999994278 -0.010493926703929901
-0.07544958591461182 -0.08197973668575287 0.16654610633850098
-0.09315911680459976 0.11455004662275314 -0.18548941612243652
-0.07640296965837479 -0.02237807586789131 0.039200857281684875
-0.08010659366846085 0.026317588984966278 -0.01882212981581688
-0.07944165170192719 0.08578630536794662 0.02225266583263874
0.009666826575994492 -0.07535164803266525 0.011037392541766167
-0.07855360954999924 -0.01480174995958805 -0.03649616241455078
-0.08202843368053436 0.07458212971687317 0.2053542286157608
0.05375209450721741 -0.07288480550050735 -0.115719735622406
0.1793537735939026 -0.08568672090768814 0.24674288928508759
-0.07733383029699326 -0.001114807091653347 0.0948667973279953
-0.08005979657173157 0.025013001635670662 0.01083415001630783
0.008067505434155464 -0.07969915121793747 0.012893768958747387
-0.09383252263069153 0.24751868844032288 0.05339783430099487
-0.07799471914768219 0.02621261589229107 0.005276039242744446
-0.08072234690189362 0.025013677775859833 -0.014988167211413383
-0.002924680709838867 -0.07430924475193024 -0.03671889007091522
-0.018518563359975815 -0.07803469896316528 0.12558257579803467
-0.0800805389881134 0.0218877624720335 0.01642768643796444
0.041165776550769806 -0.07636450231075287 0.008311130106449127
-0.10589855909347534 0.15251195430755615 0.3921065628528595
-0.02829023450613022 -0.07892252504825592 0.17296472191810608
-0.015278760343790054 -0.06862707436084747 -0.035894282162189484
-0.07992912083864212 0.020111551508307457 0.11512412130832672
0.025090347975492477 -0.08667205274105072 0.15880268812179565
0.06129136309027672 -0.07036112993955612 -0.02330598793923855
-0.01196932140737772 -0.07942751049995422 0.13651606440544128
0.20219504833221436 -0.0736093521118164 -0.08870581537485123
0.03892619535326958 -0.07215112447738647 -0.043680328875780106
-0.007337015122175217 -0.06914403289556503 -0.03611445054411888
-0.09309782087802887 0.19652177393436432 -0.2550017535686493
0.27028438448905945 -0.08360007405281067 0.3283766508102417
-0.08233365416526794 0.04590969905257225 0.2838928997516632
-0.07435029745101929 -0.01164474617689848 -0.02637135051190853
0.0005698893219232559 -0.07578015327453613 -0.034523144364356995
-0.0943451076745987 0.13360297679901123 0.34473860263824463
-0.07957258075475693 0.038481131196022034 0.10887549817562103
0.19038093090057373 -0.09232272207736969 0.2992806136608124
0.0676809772849083 -0.07493121922016144 0.05970578268170357
-0.01002863235771656 -0.09216158092021942 0.36490538716316223
-0.08643470704555511 0.03843352943658829 -0.08934605121612549
-0.07591257989406586 -0.013908762484788895 -0.028159242123365402
-0.01784406416118145 -0.076619952917099 -0.0370141938328743
-0.089154914021492 0.18305069208145142 0.1548347771167755
-0.08290324360132217 0.06971456855535507 0.08679673075675964
-0.08352398872375488 0.08155660331249237 0.06866738200187683
-0.07805085182189941 0.02176581509411335 0.08946738392114639
-0.02064100094139576 -0.08724965155124664 0.21452532708644867
-0.0777302235364914 -0.00893391389399767 0.08470221608877182
-0.07400645315647125 -0.020105823874473572 0.06628315150737762
0.05945796146988869 -0.07560981810092926 -0.024157827720046043
-0.04527180269360542 -0.07724609971046448 0.10772202163934708
0.19674071669578552 -0.0706837996840477 0.02172853983938694
0.2670912444591522 -0.08431433141231537 0.3656454086303711
-0.017496738582849503 -0.07091639935970306 -0.036529988050460815
0.0030967798084020615 -0.07584555447101593 0.06752331554889679
-0.07644298672676086 0.02123454213142395 0.01985916495323181
0.0345853716135025 -0.07541482150554657 0.06251896917819977
0.07793527096509933 -0.07312958687543869 0.031817477196455
-0.07585315406322479 -0.071539968252182 0.1215696781873703
0.007586831226944923 -0.07714325934648514 0.06024456024169922
-0.08742028474807739 0.11575983464717865 0.1077316626906395
-0.0804915502667427 0.06612414121627808 0.0851333886384964
-0.07661263644695282 0.026489414274692535 0.01905299723148346
-0.08271592110395432 -0.031462378799915314 -0.19777199625968933
-0.08294838666915894 0.0807647630572319 0.027033831924200058
0.24051469564437866 -0.06892707943916321 -0.06609726697206497
0.006949159316718578 -0.07459139823913574 0.01073615625500679
0.06207911670207977 -0.0721559226512909 -0.02047535963356495
0.19467416405677795 -0.07629299908876419 0.06459865719079971
-0.07514770328998566 -0.03374344855546951 0.41501379013061523
-0.08173386752605438 0.052601493895053864 0.1187112033367157
0.1363140046596527 -0.06903683394193649 0.03247388079762459
0.08141480386257172 -0.0777956023812294 0.12375181913375854
-0.07972203940153122 0.03835122287273407 -0.02964722365140915
-0.018296360969543457 -0.06923617422580719 -0.03543893247842789
-0.08141493797302246 0.029858287423849106 -0.022810224443674088
-0.08062925189733505 0.014223304577171803 -0.04539761692285538
0.005849819630384445 -0.07698729634284973 0.011945147998631
0.17173895239830017 -0.09675101935863495 0.3360671401023865
0.18991009891033173 -0.07589194178581238 0.09062615782022476
-0.08321159332990646 0.025510381907224655 -0.05992238223552704
0.1292063593864441 -0.06854583323001862 -0.05643869936466217
-0.0905209481716156 -0.0041205994784832 0.42380595207214355
0.0009663794189691544 -0.07781656831502914 0.014078037813305855
0.19006499648094177 -0.07503265142440796 0.08897282928228378
-0.016662731766700745 -0.0714133158326149 -0.028265895321965218
0.15849635004997253 -0.06934905052185059 -0.28468209505081177
0.2415621280670166 -0.08047154545783997 0.0883944034576416
-0.06895426660776138 -0.07481782138347626 -0.00562199205160141
0.18351899087429047 -0.0751587450504303 -0.0035720616579055786
0.05444305017590523 -0.08152066171169281 0.11143521964550018
-0.01931813545525074 -0.06587119400501251 -0.033684466034173965
-0.07534229010343552 -0.010384040884673595 -0.02287868969142437
0.008171197026968002 -0.07391686737537384 0.013787279836833477
0.003443164750933647 -0.07367745786905289 0.009520299732685089
-0.07844913005828857 0.013112926855683327 -0.04212380200624466
0.005173308774828911 -0.07582566142082214 0.07035215198993683
0.06472077965736389 -0.08400968462228775 0.23786203563213348
0.10493744909763336 -0.07656582444906235 0.01713949255645275
-0.0922020971775055 0.09331513941287994 0.31171074509620667
0.12345406413078308 -0.08215963840484619 0.19568830728530884
0.08753426373004913 -0.07637269794940948 0.12085738778114319
0.006758740171790123 -0.07461337000131607 0.007002443075180054
0.0527808777987957 -0.07665470987558365 0.11514349281787872
-0.08501899242401123 0.14818456768989563 0.08929607272148132
-0.09929567575454712 0.0822819396853447 0.3912240266799927
0.05992156267166138 -0.07797011733055115 0.14610075950622559
0.18415504693984985 -0.07456400245428085 -0.001390904188156128
-0.08558660745620728 -0.08354144543409348 0.36296793818473816
-0.07885567843914032 0.033120010048151016 0.06185542047023773
-0.09115351736545563 0.17357975244522095 -0.08820206671953201
0.010300991125404835 -0.07397343963384628 0.005165476351976395
-0.07668369263410568 0.022704027593135834 0.01742631010711193
-0.018467489629983902 -0.06992262601852417 -0.053457409143447876
-0.08035395294427872 0.03157253935933113 0.004914272576570511
-0.016778260469436646 -0.07923300564289093 0.0842994675040245
0.009571566246449947 -0.07316145300865173 0.020598359405994415
0.19271966814994812 -0.07502508163452148 0.012256613001227379
-0.08741919696331024 0.1414155215024948 0.26711851358413696
-0.07749982178211212 -0.0577896386384964 -0.04666593670845032
0.06284601986408234 -0.07103034853935242 -0.021854523569345474
-0.08638212084770203 0.02411288395524025 -0.012206414714455605
-0.08406831324100494 0.14280757308006287 0.18023796379566193
0.08812402933835983 -0.07357164472341537 0.057783909142017365
-0.07965212315320969 -0.014893860556185246 0.0974104031920433
-0.021493416279554367 -0.0700606256723404 -0.10306014865636826
-0.045145317912101746 -0.08784180134534836 0.24953404068946838
-0.01610199362039566 -0.07473638653755188 -0.027182873338460922
-0.07399328052997589 -0.08541592955589294 0.18675893545150757
0.08979561924934387 -0.0712394192814827 0.055286556482315063
0.0011179279536008835 -0.07076385617256165 -0.05884706228971481
0.003656931221485138 -0.0741521418094635 0.12207457423210144
0.06455329060554504 -0.08056430518627167 0.14124636352062225
-0.09851919114589691 0.23430749773979187 0.33321642875671387
0.007086889818310738 -0.08030213415622711 0.12560409307479858
-0.04381571710109711 -0.07656878232955933 0.4121665358543396
-0.0798763781785965 0.05020139366388321 0.09007522463798523
0.010139968246221542 -0.073240265250206 0.010672315955162048
-0.0809909850358963 0.052623674273490906 0.059886351227760315
-0.012029427103698254 -0.07062384486198425 -0.2770712077617645
0.0005052387714385986 -0.07660950720310211 0.009655574336647987
-0.086928591132164 0.12008185684680939 -0.12906710803508759
-0.0850195586681366 0.08649510145187378 0.022054197266697884
0.007878451608121395 -0.07340533286333084 0.00881382916122675
-0.08328554779291153 0.10242874920368195 -0.0212792307138443
-0.03295808285474777 -0.07620450854301453 0.07289258390665054
-0.07898999005556107 0.04433222860097885 0.05008012428879738
-0.07501779496669769 -0.035388872027397156 0.054753582924604416
-0.08365185558795929 0.04471633583307266 -0.09496688097715378
0.1961352527141571 -0.08067728579044342 0.17774921655654907
0.004711547866463661 -0.07069522142410278 -0.026576265692710876
0.044415779411792755 -0.07509845495223999 0.007304712198674679
-0.06893782317638397 -0.080452099442482 0.19663017988204956
0.25435003638267517 -0.09161917865276337 0.23956164717674255
0.027805980294942856 -0.08881821483373642 0.41217541694641113
0.061197131872177124 -0.0714646577835083 -0.021545033901929855
-0.07437613606452942 -0.04923481121659279 -0.05402093008160591
0.06601615250110626 -0.07107189297676086 -0.02550319954752922
0.004988161846995354 -0.07856004685163498 0.1295098513364792
0.20630750060081482 -0.09289389848709106 0.3370760977268219
0.041746873408555984 -0.07521770149469376 0.030287832021713257
0.12702733278274536 -0.0757124125957489 0.12487010657787323
0.20897310972213745 -0.07519235461950302 0.12903982400894165
0.059941016137599945 -0.08705605566501617 0.2396281510591507
0.14697153866291046 -0.08351846039295197 0.21998187899589539
-0.08156947791576385 0.10019521415233612 -0.03990805894136429
-0.08196856826543808 0.025820087641477585 -0.005929626524448395
0.21105128526687622 -0.07818034291267395 0.09550920128822327
0.06081121787428856 -0.07754863798618317 0.03879395127296448
0.266221284866333 -0.08695218712091446 0.3899216651916504
-0.04146140068769455 -0.07922890782356262 0.10723447054624557
-0.09579639136791229 0.007559287361800671 0.3892585337162018
-0.08094671368598938 0.026937123388051987 -0.0025656893849372864
-0.08510762453079224 0.17139168083667755 0.03052038699388504
0.08171462267637253 -0.08181621134281158 0.12897855043411255
-0.07190584391355515 -0.05152197554707527 0.02049676887691021
0.037979576736688614 -0.07732311636209488 0.14338749647140503
0.2238280475139618 -0.07362401485443115 0.027265222743153572
-0.10289326310157776 0.2253151834011078 0.39287859201431274
-0.08639375120401382 0.18058551847934723 0.1653251051902771
0.0404677540063858 -0.07609860599040985 0.004629220813512802
-0.07863914221525192 0.009229231625795364 0.21206215023994446
0.04849597066640854 -0.07504396140575409 0.022953150793910027
0.003295915201306343 -0.0735253095626831 -0.03278705105185509
0.0037351015489548445 -0.0779140368103981 0.013616610318422318
-0.09035679697990417 0.08813099563121796 -0.16456708312034607
0.21096867322921753 -0.098818838596344 0.3743040859699249
-0.0816027969121933 -0.054412852972745895 0.41699904203414917
-0.011941870674490929 -0.07124418020248413 -0.11033112555742264
-0.07418137788772583 -0.07649648189544678 -0.010840792208909988
0.23617178201675415 -0.07166483998298645 -0.2509230971336365
-0.014116257429122925 -0.07347927987575531 -0.03258724883198738
-0.08010691404342651 0.03494347631931305 -0.030059002339839935
-0.021716494113206863 -0.07438883185386658 0.013057280331850052
-0.07573585957288742 -0.0180963147431612 -0.045856669545173645
-0.07116234302520752 -0.07997579127550125 0.14491917192935944
0.08833495527505875 -0.09499628096818924 0.34825772047042847
-0.09761986136436462 0.1888241171836853 0.3572048842906952
0.2325742244720459 -0.09189938008785248 0.275520920753479
-0.08118446171283722 0.029479846358299255 0.06096067652106285
-0.09463311731815338 0.10731722414493561 0.2700950801372528
-0.07567176222801208 -0.028064461424946785 0.06108029559254646
-0.07999131828546524 0.029789498075842857 -0.02460680902004242
0.0114779993891716 -0.0776335746049881 0.02643275447189808
-0.020093217492103577 -0.0724642425775528 -0.03201983869075775
-0.08259561657905579 0.07868748903274536 0.20561198890209198
-0.0726809874176979 -0.07659377157688141 -0.010039093904197216
-0.07648114860057831 0.021236518397927284 0.021156933158636093
0.22444520890712738 -0.06751000881195068 0.007211752235889435
-0.08598588407039642 0.16075536608695984 0.06705634295940399
0.2607279419898987 -0.07383960485458374 -0.10230530053377151
-0.008466020226478577 -0.0684422105550766 -0.054956238716840744
0.2500382959842682 -0.08043520897626877 0.04254256933927536
-0.011801449581980705 -0.07218804955482483 -0.027469806373119354
-0.09457702934741974 0.18795062601566315 -0.1990545094013214
-0.09149394929409027 0.042844824492931366 0.34548085927963257
-0.01680724322795868 -0.07499181479215622 -0.03487318381667137
-0.08171617239713669 0.05468786880373955 0.10058996081352234
-0.08209020644426346 0.03470577299594879 -0.032690949738025665
0.17502716183662415 -0.07826501131057739 0.09142734855413437
0.017789144068956375 -0.07245512306690216 0.052611541002988815
-0.07612121105194092 0.025935107842087746 -0.01850210502743721
-0.07715044915676117 0.02598334290087223 0.02321290783584118
-0.08003610372543335 0.08268089592456818 0.025406762957572937
0.1412777602672577 -0.06931000202894211 -0.04374280199408531
-0.07977817207574844 0.028245698660612106 0.014890260063111782
-0.07665789127349854 -0.021479135379195213 0.06512763351202011
-0.04135894030332565 -0.0763590931892395 0.04219264164566994
-0.057839084416627884 -0.06427441537380219 -0.27898237109184265
-0.09243517369031906 0.18048998713493347 0.24348360300064087
-0.0833764299750328 0.10557647049427032 0.14934661984443665
-0.07528667896986008 0.019643792882561684 0.0870778039097786
0.03896450623869896 -0.07637391984462738 0.006375811994075775
-0.08069514483213425 0.036743342876434326 -0.03387964144349098
-0.01215483620762825 -0.07772382348775864 0.04947199299931526
-0.09067238867282867 0.2111065685749054 0.16675233840942383
-0.0962456539273262 0.23924945294857025 0.16930943727493286
-0.08254300802946091 0.04961705580353737 0.11654399335384369
0.00023486372083425522 -0.07512108236551285 0.007927636615931988
-0.023996561765670776 -0.07984587550163269 0.032902542501688004
-0.012229595333337784 -0.09562818706035614 0.3294553756713867
0.04223340004682541 -0.0771012231707573 0.008479243144392967
0.20854121446609497 -0.08005224168300629 0.1535685509443283
-0.08307451754808426 0.027219664305448532 -0.004645202308893204
-0.08926214277744293 0.23206773400306702 0.18746337294578552
-0.076816126704216 -0.021426839753985405 0.03903567045927048
-0.07815474271774292 -0.010877298191189766 0.09898125380277634
-0.08268404752016068 0.10738439857959747 0.18412385880947113
0.060399189591407776 -0.08509347587823868 0.21546439826488495
-0.07843563705682755 -0.02481621503829956 0.03885370492935181
-0.08402553200721741 0.022930454462766647 -0.15379880368709564
-0.026345372200012207 -0.0802883580327034 0.06568191945552826
-0.046443503350019455 -0.07889338582754135 0.11762505024671555
0.0024095438420772552 -0.07497643679380417 -0.04539225995540619
0.12769025564193726 -0.10138805210590363 0.37354886531829834
-0.07670976966619492 -0.010453805327415466 -0.032386939972639084
0.07320943474769592 -0.07338271290063858 -0.2841109037399292
-0.04292301833629608 -0.09524571895599365 0.3516708016395569
-0.015391797758638859 -0.07238120585680008 -0.03261296823620796
-0.0910736545920372 -0.08871975541114807 0.3969923257827759
-0.07861429452896118 -0.012895578518509865 0.0922788605093956
0.26450520753860474 -0.08326562494039536 0.2247435599565506
0.07979550212621689 -0.072683185338974 0.0645861104130745
-0.08736255764961243 0.2070545107126236 0.04011990875005722
0.17204272747039795 -0.09027939289808273 0.26551154255867004
-0.08646801859140396 0.11281342804431915 0.10893860459327698
-0.07792641222476959 -0.028349917382001877 0.060921989381313324
-0.08506277203559875 0.16061028838157654 0.07686947286128998
-0.057456232607364655 -0.08047761023044586 0.19376340508460999
-0.07770997285842896 0.021725818514823914 0.014562452211976051
0.007582874968647957 -0.07257149368524551 0.0038996245712041855
0.03548641875386238 -0.074938103556633 0.0531795471906662
-0.02075888216495514 -0.07571006566286087 0.07510993629693985
0.02120046876370907 -0.0819789320230484 0.20523014664649963
-0.08419990539550781 0.08484895527362823 0.0675375759601593
-0.08046223223209381 0.012500781565904617 0.2669757306575775
-0.07542308419942856 -0.01976653002202511 -0.04036988317966461
-0.08061058819293976 0.024393608793616295 -0.017640918493270874
-0.07591468840837479 -0.036090970039367676 0.05467046797275543
-0.07499092817306519 0.023524373769760132 0.01941700279712677
0.05928097292780876 -0.07126278430223465 0.046187546104192734
-0.07476107776165009 0.02109428122639656 0.08768768608570099
0.1205810159444809 -0.07018846273422241 -0.005803059786558151
0.2351885288953781 -0.08041559159755707 0.1224745362997055
-0.09052138030529022 0.23843003809452057 -0.0243780929595232
-0.0779452994465828 -0.030051708221435547 0.06115008145570755
-0.020866166800260544 -0.07528918981552124 0.08437545597553253
-0.08571048080921173 0.07777350395917892 0.06633484363555908
-0.016335800290107727 -0.07128657400608063 -0.032211609184741974
-0.0846938043832779 0.04419601708650589 -0.12971565127372742
0.12176741659641266 -0.08132992684841156 0.18043285608291626
0.05968499928712845 -0.07022204995155334 -0.021380320191383362
-0.08557465672492981 0.11489972472190857 -0.02636902406811714
-0.09599199891090393 0.15726065635681152 0.30248892307281494
-0.07914584130048752 -0.025194700807332993 0.05358430743217468
-0.08098119497299194 0.04605214670300484 0.11404377222061157
-0.01562971994280815 -0.07257519662380219 -0.056993428617715836
-0.08327639102935791 0.02770204097032547 -0.02115153707563877
0.010264111682772636 -0.07382422685623169 0.028040530160069466
-0.07830216735601425 0.018131475895643234 0.18588435649871826
-0.08269825577735901 -0.0013300646096467972 0.09419216215610504
0.00797445047646761 -0.07531571388244629 0.028615901246666908
7.845647633075714e-05 -0.07208098471164703 -0.02323029935359955
-0.0787833109498024 0.035676464438438416 0.061978064477443695
-0.07588402181863785 -0.061993006616830826 0.11249686777591705
-0.08172784745693207 0.07521556317806244 -0.019124329090118408
-0.07688029855489731 -0.01087438315153122 0.09217953681945801
-0.08012475073337555 0.026768377050757408 -0.014958963729441166
-0.07923723757266998 0.02480669692158699 0.019422266632318497
-0.07842264324426651 -0.026308486238121986 0.09728379547595978
-0.07457976788282394 0.01947730779647827 0.08823629468679428
-0.085451140999794 -0.010065566748380661 -0.11757192760705948
-0.019667578861117363 -0.07197243720293045 -0.036169715225696564
-0.07989910989999771 0.05448088049888611 0.10744158923625946
0.10735022276639938 -0.087673619389534 0.23267078399658203
-0.07977856695652008 0.04282819479703903 0.19116990268230438
-0.010280942544341087 -0.06997078657150269 -0.19716888666152954
-0.07607060670852661 -0.03890566900372505 0.029203400015830994
-0.08271624892950058 0.038959503173828125 0.10677474737167358
-0.07506680488586426 -0.0146607905626297 0.06869044899940491
0.2450811117887497 -0.08258525282144547 0.4028307795524597
-0.06120198965072632 -0.07654546201229095 0.06049380451440811
-0.08637110888957977 0.09830208867788315 -0.035960033535957336
0.03855230659246445 -0.07576674222946167 0.010214634239673615
0.2547554671764374 -0.09207496047019958 0.280356228351593
0.06917637586593628 -0.08729852735996246 0.2668406665325165
0.21193552017211914 -0.07277935743331909 0.05274364724755287
0.09519405663013458 -0.0795503705739975 0.17680715024471283
0.11994296312332153 -0.07538504898548126 -0.009057281538844109
0.1365724802017212 -0.0715472400188446 0.031349170953035355
-0.07918573915958405 0.0356253907084465 -0.022263601422309875
-0.09193975478410721 0.2005712389945984 0.145015686750412
-0.08384838700294495 0.0740203857421875 0.08733056485652924
-0.07806789129972458 0.0829634815454483 0.024518758058547974
-0.08199934661388397 0.038738541305065155 0.1102912425994873
-0.079982690513134 0.059508584439754486 0.10303275287151337
0.11548630148172379 -0.07177211344242096 0.007717423141002655
-0.08736729621887207 -0.021508054807782173 0.35775405168533325
0.009715821593999863 -0.07179673761129379 0.00571199506521225
-0.07977563142776489 -0.01641656830906868 0.06935416162014008
-0.07695167511701584 0.024698175489902496 0.1528303027153015
-0.0935225635766983 0.2371043711900711 -0.057665735483169556
0.028405986726284027 -0.07997637242078781 0.12496524304151535
-0.07970723509788513 0.023928353562951088 0.02359195612370968
-0.084018275141716 -0.012525234371423721 0.3113878071308136
0.01320030726492405 -0.07774432003498077 0.007116798311471939
0.12122687697410583 -0.08882796764373779 0.21986670792102814
0.011006996035575867 -0.07768556475639343 0.023986343294382095
0.0031968820840120316 -0.07428412139415741 0.008841849863529205
-0.0439436212182045 -0.0773896723985672 0.1168489009141922
-0.057134829461574554 -0.07683546841144562 0.06875257939100266
-0.019890805706381798 -0.07170066982507706 -0.05206223949790001
-0.07971685379743576 0.05187983065843582 0.11729171127080917
-0.08903935551643372 0.15684199333190918 0.14711487293243408
-0.08614616096019745 0.04892429709434509 0.2138373851776123
-0.07471619546413422 -0.07677493989467621 0.03227125480771065
-0.08796672523021698 0.18159811198711395 -0.005271445959806442
-0.0702877938747406 -0.046440161764621735 0.020725596696138382
-0.08017249405384064 0.0323709100484848 -0.0304914228618145
-0.07837074995040894 -0.008882535621523857 0.12020070850849152
-0.10557221621274948 0.19951796531677246 0.4066914916038513
-0.07288417965173721 -0.057392437011003494 -0.03597356379032135
-0.08529597520828247 0.1334785670042038 -0.012837296351790428
0.06547033041715622 -0.0762646496295929 -0.028076820075511932
-0.008537638932466507 -0.07251955568790436 -0.12960505485534668
-0.0807964950799942 0.010590838268399239 0.08730979263782501
-0.07732724398374557 -0.08810502290725708 0.2514408528804779
-0.03532858192920685 -0.07948996126651764 0.04448220133781433
-0.016149118542671204 -0.06931562721729279 -0.020242564380168915
-0.076680026948452 0.025627071037888527 0.018439747393131256
0.04402643442153931 -0.07943002134561539 0.009083010256290436
-0.10047821700572968 0.25238680839538574 0.026334248483181
-0.0934469997882843 0.12782615423202515 0.34531986713409424
0.01409981120377779 -0.07552848011255264 0.02142951637506485
-0.08572344481945038 0.1316584050655365 -0.015209896489977837
-0.0002521201968193054 -0.07391107827425003 -0.03578577935695648
-0.023556187748908997 -0.08262304961681366 0.01418103277683258
0.010009033605456352 -0.07381346821784973 0.007380183786153793
0.10900399833917618 -0.07758224010467529 0.02096272073686123
0.16959138214588165 -0.08465321362018585 0.17547515034675598
0.050274476408958435 -0.07351326197385788 0.042832788079977036
-0.07951825857162476 -0.017018083482980728 0.07229220867156982
0.1653231829404831 -0.06950689852237701 -0.08918096125125885
-0.07849620282649994 0.03299645707011223 0.006046878173947334
0.019885487854480743 -0.07224003225564957 0.08491727709770203
-0.07830795645713806 -0.02530600316822529 0.04391045495867729
-0.07576785236597061 -0.0038423538208007812 0.09450511634349823
-0.09258489310741425 0.22402909398078918 0.17048516869544983
0.21880924701690674 -0.06997333467006683 0.010578546673059464
-0.08884747326374054 0.1722889244556427 0.10158646106719971
0.08245876431465149 -0.10051262378692627 0.3643701672554016
-0.005829932168126106 -0.08265338838100433 0.19783344864845276
-0.07686065137386322 0.021483728662133217 0.02087349072098732
0.01809876412153244 -0.07372821122407913 0.04706130921840668
-0.019270336255431175 -0.07079394161701202 -0.06263410300016403
0.09213899821043015 -0.07862839102745056 0.06009143590927124
0.1763843297958374 -0.07548418641090393 0.06269211322069168
-0.07115425914525986 -0.05606573820114136 -0.03989784047007561
-0.07707236707210541 -0.048017702996730804 -0.11351756751537323
-0.08156740665435791 0.04439771920442581 0.046105511486530304
-0.08983969688415527 0.18495208024978638 0.1517840325832367
-0.08489471673965454 0.03165918588638306 -0.06009795516729355
0.021191101521253586 -0.06773452460765839 -0.05635012313723564
-0.015449891798198223 -0.07809601724147797 0.05519482120871544
0.010759972035884857 -0.07477071136236191 0.028244059532880783
-0.11169508099555969 0.23846915364265442 0.4216131269931793
0.11624705046415329 -0.07031592726707458 -0.11161195486783981
0.1871902048587799 -0.09881900995969772 0.36302241683006287
0.2631576657295227 -0.07575777173042297 0.07387925684452057
-0.07974974811077118 0.024895204231142998 -0.05982659012079239
0.010860979557037354 -0.07563614845275879 0.024502094835042953
0.008414764888584614 -0.07266471534967422 0.02623702771961689
0.02542903833091259 -0.08020972460508347 0.1361910104751587
0.06148393452167511 -0.07356927543878555 -0.027430232614278793
-0.0750182569026947 -0.050149105489254 -0.05340821295976639
-0.08288002014160156 0.1547238975763321 0.15002529323101044
-0.018989885225892067 -0.07717107236385345 0.05292019248008728
-0.08169828355312347 0.08295414596796036 0.026767617091536522
-0.0768389031291008 0.019572922959923744 0.019121937453746796
0.13374459743499756 -0.08948418498039246 0.30510300397872925
0.07443899661302567 -0.07566520571708679 0.06560283899307251
-0.040240246802568436 -0.08008766174316406 0.04599636793136597
0.017313599586486816 -0.0722777470946312 0.04699622467160225
-0.07236985862255096 -0.0835895985364914 -0.028769072145223618
0.16158631443977356 -0.08479933440685272 0.20002295076847076
0.04539119079709053 -0.07542510330677032 0.01739121600985527
-0.012433910742402077 -0.07714754343032837 0.04380365088582039
-0.08286608010530472 0.02389969490468502 -0.01639888435602188
0.23521272838115692 -0.0699010044336319 -0.18935447931289673
0.05051128566265106 -0.07702996581792831 0.0343206450343132
0.11997978389263153 -0.07843257486820221 0.09985873103141785
0.009608968161046505 -0.07197147607803345 0.006230254657566547
-0.08491580933332443 0.025851760059595108 -0.019716773182153702
0.04590853303670883 -0.08859951794147491 0.2294595092535019
-0.07506968080997467 -0.02599884383380413 0.061561405658721924
-0.08400022983551025 0.05280081182718277 0.05015871673822403
-0.08018869906663895 0.09238207340240479 -0.031501151621341705
-0.08203601837158203 0.08834782242774963 0.18164387345314026
-0.08505731076002121 0.04746164381504059 0.28508755564689636
-0.08395641297101974 0.03912213817238808 0.106423020362854
-0.07668167352676392 0.02305563911795616 0.019234713166952133
-0.08187827467918396 0.025640318170189857 0.012264452874660492
-0.0013101603835821152 -0.07547546178102493 -0.031333088874816895
-0.10033892095088959 0.24734127521514893 0.2873450517654419
-0.07588537037372589 0.02498360350728035 0.023169677704572678
-0.08297448605298996 0.016777705401182175 0.27721133828163147
-0.0926802009344101 0.10927265137434006 -0.26919034123420715
-0.08433517813682556 0.047285087406635284 0.12202377617359161
0.26595044136047363 -0.07404075562953949 0.12509211897850037
0.2382311224937439 -0.07964512705802917 0.09025813639163971
-0.011760741472244263 -0.0719456896185875 -0.0334872268140316
-0.08097487688064575 -0.007639115210622549 0.11594803631305695
-0.019597165286540985 -0.07496534287929535 -0.05414934456348419
0.12013012170791626 -0.07044537365436554 -0.004222771152853966
0.04507545754313469 -0.0744694322347641 0.02622530236840248
-0.08349229395389557 0.08214327692985535 0.11438795179128647
0.18824893236160278 -0.06821102648973465 -0.05802726000547409
0.013294014148414135 -0.07339493930339813 0.006125286221504211
-0.043828994035720825 -0.07805116474628448 0.1079551950097084
-0.02684919163584709 -0.07759604603052139 0.03816407546401024
0.11956211924552917 -0.07440008223056793 -0.007609459571540356
-0.015242225490510464 -0.07100582122802734 -0.03398599475622177
-0.08791958540678024 0.1471756398677826 0.18429329991340637
-0.08369581401348114 0.02581132762134075 -0.018342547118663788
0.005465872585773468 -0.07538887858390808 0.027957385405898094
0.08997204154729843 -0.09581427276134491 0.3025474548339844
0.050005607306957245 -0.0766134262084961 0.03197412192821503
-0.07746710628271103 0.023015152662992477 0.021316275000572205
-0.08637408912181854 0.13339188694953918 -0.012162202037870884
-0.08589324355125427 -0.05386069789528847 0.3640070855617523
-0.07820002734661102 -0.021628158167004585 0.06743620336055756
-0.0806620717048645 0.04459306597709656 0.12283522635698318
0.07112414389848709 -0.07369455695152283 0.0339498296380043
-0.07691139727830887 -0.013896200805902481 0.2114747166633606
0.015681015327572823 -0.07431872934103012 0.02287118136882782
0.1735805720090866 -0.07813315093517303 0.11889395862817764
-0.012195022776722908 -0.08956278860569 0.288524866104126
-0.0923033207654953 0.16741245985031128 0.22063493728637695
0.04649779573082924 -0.07400570809841156 0.02665157988667488
0.011479884386062622 -0.07600817084312439 0.006929678842425346
0.014808611944317818 -0.07117720693349838 0.05723055079579353
0.07823348045349121 -0.06948845088481903 -0.17553868889808655
-0.08230887353420258 0.010215447284281254 0.2696298360824585
-0.0806092619895935 0.033298686146736145 -0.02412506751716137
-0.07569544017314911 0.033964138478040695 -0.03480386734008789
0.004964405670762062 -0.07706151157617569 0.016151318326592445
0.013746054843068123 -0.07524362206459045 0.009422979317605495
-0.02039695903658867 -0.06752593070268631 -0.07049302011728287
-0.07909201085567474 -0.0035631246864795685 0.09612737596035004
0.2521793246269226 -0.0971619114279747 0.3155404031276703
-0.08373821526765823 0.0808897390961647 0.04458014667034149
-0.0788721889257431 0.025940585881471634 -0.015622135251760483
0.05758620798587799 -0.07183720916509628 -0.02080211602151394
-0.0028704889118671417 -0.07247798144817352 -0.03491082042455673
-0.07034894824028015 -0.06633957475423813 0.006920855958014727
0.08938434720039368 -0.0728054940700531 0.0577867366373539
-0.08000244200229645 0.016152184456586838 0.01728656329214573
-0.07688033580780029 0.019748171791434288 0.018303900957107544
0.05819197744131088 -0.07529087364673615 -0.022973332554101944
0.05177358165383339 -0.09718020260334015 0.325031578540802
0.12246161699295044 -0.0772666186094284 0.09937119483947754
0.016404245048761368 -0.07492807507514954 0.043314531445503235
0.041773661971092224 -0.07514292001724243 0.007663959637284279
-0.023490726947784424 -0.08051559329032898 0.11862412095069885
-0.0814114660024643 0.027973081916570663 -0.02035733312368393
0.2527853846549988 -0.10067861527204514 0.4054945409297943
-0.08053147792816162 0.04824647307395935 0.12130966037511826
-0.09931366890668869 0.24600663781166077 -0.16601034998893738
-0.005888414103537798 -0.0726919025182724 -0.07645714282989502
-0.019268594682216644 -0.08560073375701904 0.21401721239089966
0.25869980454444885 -0.08266030251979828 0.17141151428222656
0.08900639414787292 -0.07740025222301483 0.06012233346700668
0.009450902231037617 -0.07749996334314346 0.012418817728757858
0.06363501399755478 -0.09379822760820389 0.4050295054912567
-0.06314696371555328 -0.09732229262590408 0.36535191535949707
-0.06971807777881622 -0.07169711589813232 -0.21986547112464905
-0.08461181074380875 0.14324888586997986 0.09865929186344147
-0.08552710711956024 0.050659485161304474 0.21370434761047363
0.0717032328248024 -0.08828896284103394 0.22678567469120026
0.07034219056367874 -0.07121958583593369 -0.024761414155364037
-0.012460349127650261 -0.08368445187807083 0.19828911125659943
-0.0935286432504654 0.048720281571149826 -0.2565804421901703
-0.07558734714984894 -0.0186154767870903 0.06986054033041
-0.0509725920855999 -0.07732157409191132 0.1267886608839035
-0.08339207619428635 0.12575042247772217 0.043085936456918716
-0.09621813893318176 0.22955147922039032 0.33469271659851074
-0.009359702467918396 -0.06957213580608368 -0.037198811769485474
-0.07719558477401733 0.02851574681699276 0.023372452706098557
0.008939918130636215 -0.07719172537326813 0.012980655767023563
-0.08158761262893677 0.025427483022212982 -0.0164303258061409
-0.09501436352729797 0.23705625534057617 0.11382628977298737
-0.07711709290742874 -0.03648274391889572 -0.02191416174173355
-0.02407044544816017 -0.07705284655094147 0.006490498781204224
-0.09132067859172821 0.239873468875885 0.19925865530967712
-0.07954970002174377 0.025279391556978226 0.015445712953805923
-0.0723375752568245 -0.03412846475839615 0.15528498589992523
0.08709345757961273 -0.07445625215768814 0.0568067729473114
-0.083196260035038 0.04269784688949585 0.11063677817583084
-0.08051851391792297 0.052470482885837555 0.11714166402816772
-0.08113215863704681 0.035417962819337845 -0.03471796214580536
-0.0005100015550851822 -0.0937052071094513 0.4073854088783264
-0.10879696905612946 0.18105605244636536 0.42482107877731323
-0.02905910089612007 -0.0776333212852478 0.054746560752391815
-0.07286189496517181 -0.04774228855967522 -0.05852264165878296
-0.019348250702023506 -0.0719052106142044 -0.056476570665836334
-0.08199802041053772 0.0481254942715168 -0.04500265419483185
0.007447423413395882 -0.0741235539317131 0.006046971306204796
-0.083391934633255 0.08490388095378876 0.055641964077949524
0.17732593417167664 -0.07297207415103912 -0.003072635270655155
0.13526220619678497 -0.07562389969825745 0.035688988864421844
0.11712624132633209 -0.0726480633020401 -0.01647912710905075
-0.09564477205276489 0.22587241232395172 0.33225035667419434
-0.08791889250278473 0.2207404524087906 0.1286371499300003
-0.08405925333499908 0.07236914336681366 0.1480427235364914
-0.08498318493366241 0.10714708268642426 -0.060931235551834106
-0.08708126842975616 0.18858087062835693 0.0693194642663002
0.009924756363034248 -0.07622009515762329 0.023408198729157448
-0.09379248321056366 0.2253611981868744 0.05763079598546028
-0.08002815395593643 -0.012740092352032661 0.10555145144462585
0.041833389550447464 -0.07712289690971375 0.010726314038038254
0.24423232674598694 -0.0775369256734848 0.12716907262802124
-0.014673073776066303 -0.07458347827196121 0.055401962250471115
-0.077715203166008 0.08424339443445206 0.02371789515018463
-0.07650567591190338 -0.01542697288095951 0.0673351064324379
-0.07547741383314133 -0.015500467270612717 -0.031236767768859863
-0.07825630158185959 0.03173467516899109 0.05947304144501686
-0.018943406641483307 -0.06986643373966217 -0.05492599308490753
0.08217251300811768 -0.07647228240966797 0.1255430281162262
0.005663086660206318 -0.07321309298276901 -0.0991593524813652
0.016897564753890038 -0.07797636836767197 0.05171157419681549
0.00914667546749115 -0.0751877874135971 0.023186402395367622
-0.07746042311191559 0.022381555289030075 0.021421043202280998
-0.01415437925606966 -0.07124416530132294 -0.025332266464829445
-0.07928857952356339 0.025449242442846298 0.007630558684468269
-0.0952974185347557 0.07398049533367157 0.3643117845058441
0.2145766168832779 -0.08887222409248352 0.2330646514892578
-0.07761818915605545 0.021513763815164566 0.01898278295993805
-0.08083584904670715 0.07142548263072968 0.1007125973701477
0.0883149728178978 -0.07502136379480362 0.12009355425834656
0.02595217153429985 -0.07401777803897858 -0.09484601020812988
0.007348276674747467 -0.0750429779291153 0.007444653194397688
-0.09010715037584305 0.15798340737819672 -0.029888343065977097
0.010364812798798084 -0.07260368764400482 0.0035402365028858185
-0.08907420933246613 0.1428927481174469 0.10116702318191528
-0.0730835422873497 -0.08529993891716003 0.1595073640346527
-0.07584653049707413 -0.026296688243746758 0.05426158383488655
0.009385069832205772 -0.07187798619270325 0.010460524819791317
0.013823147863149643 -0.070114366710186 -0.06209902465343475
-0.08021184056997299 0.03816019371151924 -0.039287175983190536
-0.09206385165452957 0.18310761451721191 -0.007722578942775726
0.08964565396308899 -0.07693824172019958 0.056410472840070724
-0.0863490179181099 0.11458507925271988 0.24455615878105164
-0.08585584908723831 0.08819407224655151 0.1488087773323059
-0.07447908073663712 -0.021976538002490997 0.22843512892723083
-0.08245027810335159 0.01688908413052559 -0.06728780269622803
0.05988427996635437 -0.08206215500831604 0.21184951066970825
0.010976918041706085 -0.0733349472284317 0.011049147695302963
-0.07906463742256165 -0.020521260797977448 0.03814288228750229
-0.07272884994745255 -0.07388715445995331 -0.06712275743484497
-0.0836726576089859 0.02625502459704876 -0.015546660870313644
-0.09007705748081207 0.17907026410102844 0.12839195132255554
-0.07885118573904037 0.020108355209231377 0.09184394776821136
0.024550165981054306 -0.09949518740177155 0.3636495769023895
-0.02568061091005802 -0.07821973413228989 0.04492919147014618
0.022596392780542374 -0.0886109471321106 0.21400007605552673
-0.024271972477436066 -0.07025879621505737 0.006356984376907349
-0.013952067121863365 -0.07172262668609619 -0.021521663293242455
-0.07526466995477676 0.00736967520788312 0.17732596397399902
-0.0823267251253128 0.024857280775904655 -0.017126407474279404
0.2621612548828125 -0.07552911341190338 0.03911326453089714
-0.07452502101659775 -0.06746950000524521 -0.05078943446278572
-0.07711037248373032 0.020349137485027313 0.02128024771809578
-0.022746313363313675 -0.07151900231838226 -0.05272046476602554
-0.07778429985046387 0.023965902626514435 0.019366677850484848
-0.10026621073484421 0.1337571144104004 0.374589741230011
-0.024201977998018265 -0.0757797360420227 0.012334728613495827
-0.08473281562328339 0.13770022988319397 0.008218351751565933
-0.07860857248306274 0.022367801517248154 0.01954640820622444
-0.07843382656574249 0.028514698147773743 -0.018985332921147346
-0.0021953079849481583 -0.0733620896935463 -0.019102782011032104
0.1235785186290741 -0.07000994682312012 -0.07509219646453857
0.014173811301589012 -0.07503200322389603 0.05388064682483673
-0.028709983453154564 -0.06907419860363007 -0.0626893937587738
-0.07781468331813812 0.02206781879067421 0.02067536488175392
0.03786489740014076 -0.07510238140821457 0.053081315010786057
-0.079046331346035 0.0229804627597332 0.01778336614370346
-0.07489997148513794 -0.07587172091007233 0.11910484731197357
0.08660608530044556 -0.07732413709163666 0.1203000545501709
0.15392690896987915 -0.09352871775627136 0.2683212459087372
0.03689027950167656 -0.0927312821149826 0.2821747064590454
-0.08034669607877731 0.04369243234395981 0.11860649287700653
-0.0821978896856308 -0.012008859775960445 -0.03489483520388603
-0.004555031657218933 -0.08353982865810394 0.20100630819797516
-0.080336794257164 0.05922023952007294 0.05938546732068062
-0.07533267885446548 -0.034707628190517426 -0.07881475985050201
0.18133783340454102 -0.07026790082454681 -0.0016192477196455002
-0.07334423065185547 -0.05316079035401344 -0.030189592391252518
0.022141912952065468 -0.08462254703044891 0.19961941242218018
0.04697193577885628 -0.07651229202747345 0.023188408464193344
0.02295098453760147 -0.08272044360637665 0.13109393417835236
-0.07521682232618332 -0.07492882013320923 0.05422505736351013
-0.07959762215614319 0.10045682638883591 -0.047140564769506454
-0.08635194599628448 0.052885960787534714 -0.08359122276306152
-0.07491175830364227 0.02190364897251129 0.019198952242732048
-0.0782538428902626 0.021970925852656364 0.022654909640550613
0.04715106636285782 -0.0770096480846405 0.01921781338751316
-0.09047017991542816 0.23499512672424316 0.0444609671831131
0.003957035019993782 -0.07648161053657532 0.0074448660016059875
0.0018805712461471558 -0.07830345630645752 0.018715668469667435
-0.08877970278263092 0.2070988267660141 0.09187197685241699
-0.09362532198429108 0.03771466761827469 0.38452792167663574
0.11724472045898438 -0.07165969163179398 -0.011163529008626938
-0.08048601448535919 0.030953701585531235 0.05904953181743622
-0.019469020888209343 -0.07148492336273193 -0.056727223098278046
-0.0847899466753006 0.039791833609342575 -0.2051764279603958
0.04731065034866333 -0.07439149916172028 0.014058604836463928
-0.028415851294994354 -0.07499727606773376 0.06783042103052139
-0.08252229541540146 0.0861954540014267 0.039889849722385406
-0.008365551009774208 -0.09101185202598572 0.28039005398750305
-0.07351701706647873 -0.026161417365074158 0.22967885434627533
0.07227200269699097 -0.0788649171590805 0.0674179270863533
-0.08729498088359833 0.13979843258857727 -0.07249818742275238
-0.08085144311189651 0.019696008414030075 0.01992281712591648
-0.08066605031490326 -0.007936149835586548 0.09411405026912689
-0.09818044304847717 0.0956868976354599 0.3722933530807495
-0.07881300151348114 0.022072168067097664 0.019111856818199158
-0.015591940842568874 -0.07336071133613586 -0.03265554457902908
0.010802380740642548 -0.07560910284519196 0.006378817372024059
-0.08153676986694336 -0.014179207384586334 -0.036936864256858826
0.01738627254962921 -0.0780695229768753 0.08495072275400162
0.12137140333652496 -0.06920398026704788 -0.14003518223762512
0.014755998738110065 -0.07075951248407364 -0.07038052380084991
-0.08690524101257324 -0.06354589760303497 0.32692933082580566
-0.07942664623260498 -0.07020199298858643 -0.00980076938867569
0.12633016705513 -0.08213850855827332 0.12916496396064758
0.018474889919161797 -0.07366704195737839 0.04744810238480568
0.00029174494557082653 -0.07413704693317413 0.005842205137014389
0.0005799289792776108 -0.07227180153131485 0.008853519335389137
-0.08294664323329926 0.13435477018356323 0.13323718309402466
0.0655994787812233 -0.07860066741704941 0.14610978960990906
0.12223676592111588 -0.07357791066169739 -0.013330720365047455
0.04044979438185692 -0.08298274874687195 0.1473400592803955
-0.08394762128591537 0.015325278043746948 0.27786505222320557
-0.07983114570379257 0.020105499774217606 0.01895018480718136
-0.08251975476741791 0.031392451375722885 -0.023196520283818245
-0.08189914375543594 0.04782113805413246 0.1206710934638977
-0.08101241290569305 0.046140074729919434 0.1920555979013443
0.049859918653964996 -0.06710731238126755 -0.017127173021435738
-0.07917879521846771 0.02399773709475994 0.018014047294855118
-0.023196887224912643 -0.06715816259384155 -0.03626156970858574
0.009060055017471313 -0.07635573297739029 0.000832870602607727
-0.07730494439601898 -0.02538468688726425 0.10537520051002502
-0.07124601304531097 -0.07041124254465103 -0.05721558257937431
-0.08381617814302444 0.13232803344726562 -0.012554146349430084
0.0031255725771188736 -0.08188039064407349 0.014777349308133125
-0.021632950752973557 -0.08244302868843079 0.038776759058237076
-0.07892754673957825 -0.01584426686167717 -0.03566187992691994
0.1667395681142807 -0.09841561317443848 0.40118664503097534
-0.07907126098871231 -0.0077065834775567055 0.0962805449962616
0.09637963771820068 -0.09119312465190887 0.2749514579772949
0.01521987747400999 -0.07633285224437714 0.051176294684410095
0.005988329648971558 -0.07334055006504059 0.006461486220359802
-0.09070020169019699 0.20359525084495544 0.2357405126094818
0.02029123529791832 -0.08191683888435364 0.2206859290599823
-0.07917884737253189 -0.004358506761491299 0.09530392289161682
-0.07924114912748337 0.085889533162117 0.018426179885864258
-0.014319549314677715 -0.07816137373447418 0.03845155984163284
0.06135420501232147 -0.07771972566843033 0.041597433388233185
-0.07620794326066971 0.02876167930662632 0.004993278533220291
0.1064068078994751 -0.07607989013195038 0.016468757763504982
-0.07345107197761536 -0.016296520829200745 -0.03409548103809357
-0.08303675800561905 0.10566873848438263 0.42810314893722534
-0.1039678230881691 0.07419349998235703 0.4138500690460205
-0.05681191757321358 -0.08272135257720947 0.07595106959342957
0.07825945317745209 -0.07935957610607147 0.12530489265918732
0.06569299101829529 -0.07201272994279861 -0.0226210355758667
0.1198686808347702 -0.09061579406261444 0.4009297490119934
0.03900957107543945 -0.07591468840837479 0.009456661529839039
-0.08344675600528717 0.08902842551469803 0.04147668555378914
-0.07778764516115189 0.02450728416442871 0.15193045139312744
-0.07553741335868835 -0.06123235076665878 -0.10033521801233292
-0.07453790307044983 -0.07557906955480576 0.028835780918598175
0.044368013739585876 -0.07332304120063782 -0.21311183273792267
-0.0889410525560379 0.20256417989730835 0.18615122139453888
0.10553532838821411 -0.07748162001371384 0.019751381129026413
-0.10434606671333313 0.24993109703063965 0.27944567799568176
0.011326899752020836 -0.09020622819662094 0.2839924395084381
-0.07836036384105682 -0.03082398511469364 0.05549890920519829
0.005691178143024445 -0.09039045870304108 0.2548896074295044
-0.0878397673368454 0.159683495759964 0.20382337272167206
-0.07136692851781845 -0.05263550579547882 0.07148459553718567
-0.07235070317983627 -0.015004169195890427 -0.035748183727264404
-0.08190227299928665 -0.0028377873823046684 0.10210210084915161
-0.07867208123207092 -0.015426527708768845 -0.032554805278778076
-0.08102580904960632 0.032015539705753326 -0.018056049942970276
0.02986118383705616 -0.08131740987300873 0.17954295873641968
-0.07998060435056686 0.009964565746486187 0.2625182867050171
-0.020710527896881104 -0.07418286055326462 -0.0498427115380764
-0.08221638947725296 0.02926279790699482 -0.0037268828600645065
-0.02000448852777481 -0.0706738755106926 -0.02429993636906147
-0.07495299726724625 -0.02961786836385727 0.05561800301074982
-0.10022113472223282 0.19165483117103577 0.3556646704673767
-0.0838434249162674 0.1038709506392479 -0.03730500862002373
-0.08217035233974457 0.028849637135863304 -0.008068099617958069
-0.07829226553440094 -0.013140140101313591 0.0688483715057373
-0.019399799406528473 -0.0724545419216156 -0.03290397673845291
-0.08056405931711197 0.03932502120733261 0.11150103807449341
-0.08040279150009155 -0.00349670322611928 0.08788488805294037
-0.09353452920913696 0.2252177745103836 -0.1024925634264946
-0.07782576978206635 -0.0159491915255785 -0.025473322719335556
0.009651822969317436 -0.07253070920705795 0.010032007470726967
-0.08594348281621933 0.10184938460588455 -0.07754234224557877
-0.08861738443374634 0.1591595709323883 0.026626672595739365
-0.09099531918764114 0.18064644932746887 -0.1470339596271515
0.20733961462974548 -0.07440056651830673 0.07070168107748032
-0.07635990530252457 0.037446655333042145 0.05458807200193405
-0.0872933492064476 0.2281574159860611 0.006565404124557972
-0.015752870589494705 -0.07204365730285645 -0.02969217300415039
0.01171828806400299 -0.07184901088476181 0.010774895548820496
-0.07508105039596558 -0.05452938750386238 0.26568132638931274
-0.07880809903144836 0.038393303751945496 0.18657222390174866
-0.0762544721364975 0.011172673664987087 0.27047914266586304
-0.08416826277971268 0.08021436631679535 0.18794238567352295
-0.03917232155799866 -0.0822303518652916 0.1739824116230011
-0.016832582652568817 -0.07273657619953156 -0.0388123020529747
-0.02031870372593403 -0.07061024755239487 -0.15140250325202942
-0.07723335921764374 -0.07165321707725525 0.30953773856163025
-0.000535876490175724 -0.07006147503852844 -0.05301974341273308
-0.0735473781824112 -0.021347997710108757 0.046545952558517456
-0.07422184944152832 -0.06806918978691101 -0.0684797540307045
-0.07041169703006744 -0.08313858509063721 -0.04294900968670845
-0.06918785721063614 -0.07881395518779755 0.052798718214035034
-0.0950535386800766 0.22509610652923584 0.2504417896270752
