-0.07819323986768723 0.03245195001363754 -0.05634353309869766
-0.06901276856660843 -0.007975906133651733 -0.2999236285686493
-0.022840920835733414 -0.1062372475862503 0.09687850624322891
0.10170230269432068 -0.05680946260690689 0.08455921709537506
-0.08074770122766495 -0.054666921496391296 -0.195587158203125
-0.10125282406806946 0.07921504974365234 0.2008059173822403
-0.11063499003648758 0.08488450944423676 0.30522456765174866
0.052528224885463715 -0.12075772136449814 -0.12495878338813782
-0.11094750463962555 0.05716145783662796 -0.044937338680028915
-0.05848255008459091 0.09263186156749725 0.02142908051609993
0.08956019580364227 -0.07135707139968872 -0.02530776895582676
-0.07368113100528717 0.08999082446098328 0.15247638523578644
-0.05558992922306061 0.10979199409484863 0.06379872560501099
-0.135136678814888 -0.00545024499297142 0.40819698572158813
0.06217522174119949 -0.10211876034736633 -0.09151667356491089
0.12188293039798737 -0.07687202095985413 -0.17781400680541992
0.010122610256075859 -0.11538049578666687 -0.17396673560142517
-0.0279809832572937 -0.08836381137371063 -0.19583666324615479
-0.07466603070497513 0.12460479140281677 0.2779751121997833
-0.03247825801372528 -0.07542306184768677 -0.28101399540901184
-0.015453239902853966 -0.10800054669380188 0.3379657566547394
-0.02454288676381111 -0.1190531775355339 0.03803398832678795
0.06618618220090866 -0.09359098970890045 0.05164376273751259
0.02508201263844967 -0.11631499975919724 -0.03755330294370651
0.10560578107833862 -0.05825241282582283 0.006024233531206846
-0.0807851105928421 -0.02035904861986637 -0.16846302151679993
-0.06766172498464584 0.06041144207119942 -0.19206039607524872
-0.02743912860751152 -0.09741149842739105 -0.2108801007270813
0.06308382749557495 -0.08560340851545334 0.001876225695014
0.09995253384113312 -0.08263717591762543 -0.17847298085689545
-0.09541091322898865 0.030701860785484314 0.022356484085321426
0.08022329956293106 -0.09560146927833557 0.16041199862957
0.11694534122943878 -0.053285062313079834 -0.048554085195064545
0.046751659363508224 -0.12196594476699829 0.3081608712673187
-0.094375841319561 0.05514604225754738 0.023252833634614944
0.0947549119591713 -0.08967164158821106 0.16997051239013672
0.03642667084932327 -0.03757893666625023 -0.34720730781555176
0.09114516526460648 -0.08185426890850067 -0.052664898335933685
0.0825301930308342 -0.07562606781721115 -0.028679510578513145
-0.06735076755285263 0.09838881343603134 0.07033782452344894
0.006059305742383003 -0.0014802813529968262 -0.35033929347991943
-0.09761762619018555 0.10365735739469528 0.19599930942058563
0.11129467189311981 -0.08333130180835724 -0.1304296851158142
-0.10085408389568329 0.028527460992336273 0.03688716143369675
-0.08236835896968842 -0.022011755034327507 -0.19956915080547333
0.025389982387423515 -0.10534749180078506 -0.2848087549209595
-0.029894236475229263 0.07111775875091553 -0.35149550437927246
-0.10638880729675293 -0.0017805024981498718 -0.17201530933380127
0.11354288458824158 -0.05027525871992111 -0.028895029798150063
-0.02347739227116108 0.12544311583042145 -0.0405467189848423
0.03134753555059433 -0.10568621754646301 0.2340228259563446
-0.07839207351207733 -0.08159618824720383 -0.18330463767051697
-0.12472046911716461 -0.0021952930837869644 0.15814709663391113
-0.08342830836772919 0.07684388011693954 -0.015447803772985935
0.09733244776725769 -0.07843562215566635 -0.34008359909057617
0.050517965108156204 -0.10206805169582367 -0.14745092391967773
-0.10215125977993011 -0.05306755006313324 0.35259395837783813
0.10006706416606903 -0.08052011579275131 0.23929449915885925
-0.09465689957141876 0.02136480063199997 0.03226590156555176
0.014646440744400024 -0.1217079609632492 -0.010083116590976715
0.01376531645655632 -0.0819932222366333 -0.3427225351333618
-0.10135865211486816 0.03089912235736847 0.013191062025725842
-0.1033523827791214 0.07477442175149918 0.1778845489025116
-0.08174934983253479 0.08909627050161362 0.008745839819312096
-0.08042235672473907 0.0697251558303833 0.0004426700761541724
-0.1010490283370018 0.040373172610998154 0.012051554396748543
0.08954447507858276 -0.06979811191558838 -0.03276395797729492
0.00828387401998043 -0.09446527063846588 0.21876728534698486
0.09329603612422943 -0.07275688648223877 -0.0221480093896389
-0.05576913058757782 0.10964182019233704 0.0807446837425232
0.09844741225242615 -0.08105475455522537 -0.03366900235414505
-0.0845499187707901 0.06690569967031479 0.008838359266519547
-0.08283828943967819 -0.08703230321407318 0.1846105456352234
0.058787621557712555 -0.08749878406524658 0.1250264197587967
-0.09408865123987198 0.03672298416495323 0.014738213270902634
-0.06735267490148544 0.10031948983669281 -0.0861799344420433
-0.04986109957098961 0.010032366961240768 -0.2230323851108551
-0.12187246978282928 -0.046387724578380585 0.12755563855171204
-0.1060255691409111 0.06133480370044708 0.07779622077941895
-0.08443319797515869 0.04353134706616402 -0.17299753427505493
-0.1222563087940216 0.02666020207107067 0.22959962487220764
0.07290713489055634 -0.09909804165363312 0.13367490470409393
0.10611742734909058 -0.05019436031579971 0.006749821361154318
-0.028880055993795395 -0.055243849754333496 -0.36307018995285034
-0.11519137024879456 0.037976041436195374 -0.11312646418809891
0.036989644169807434 -0.10319839417934418 0.12819266319274902
0.1144111156463623 -0.05235079675912857 0.0018126186914741993
-0.020084019750356674 -0.07513805478811264 -0.20354880392551422
0.08732572942972183 -0.07689517736434937 -0.024038366973400116
-0.03941338509321213 -0.036402683705091476 -0.35003989934921265
0.06123816967010498 -0.10933005064725876 0.2607461214065552
-0.06250212341547012 0.03900577872991562 -0.3391203284263611
0.059144336730241776 -0.08948466926813126 0.025449305772781372
0.15097667276859283 -0.09324122965335846 0.35507315397262573
0.12225547432899475 -0.06464885175228119 -0.12496925890445709
0.11054663360118866 -0.05339726060628891 -0.001043795607984066
-0.13601930439472198 -0.016839679330587387 -0.1387777030467987
-0.06015099585056305 0.11079305410385132 -0.041725900024175644
0.11483071744441986 -0.06938613206148148 -0.13611988723278046
0.04640256613492966 -0.10320174694061279 -0.025155214592814445
-0.0879639983177185 0.06394295394420624 0.02712075784802437
-0.09914450347423553 0.03791493922472 0.010261722840368748
0.08077796548604965 -0.09405027329921722 0.12117829918861389
0.017393717542290688 -0.09684894233942032 -0.18226271867752075
-0.010254774242639542 0.03125715255737305 -0.37695443630218506
0.11543245613574982 -0.05068570375442505 -0.01203202735632658
0.006947706453502178 -0.12104815244674683 -0.17403937876224518
-0.038235120475292206 0.12143707275390625 -0.34366679191589355
0.08701460063457489 -0.0748661607503891 -0.031363051384687424
0.12969546020030975 -0.0718754455447197 0.20977768301963806
-0.1134183257818222 0.07088886201381683 0.18294820189476013
-0.04661504179239273 -0.09837989509105682 0.23470617830753326
-0.03924020007252693 0.12618321180343628 -0.06159812957048416
-0.11061901599168777 -0.02266668900847435 0.09245023876428604
0.11171700805425644 -0.05685277655720711 0.03536215052008629
-0.09015999734401703 0.055008210241794586 0.02665012702345848
0.06002601236104965 -0.08507365733385086 0.002663391875103116
-0.07192061841487885 0.1393052488565445 0.2711564600467682
-0.05324320122599602 0.12803208827972412 -0.09106302261352539
0.05396227538585663 -0.09065140038728714 0.005988553166389465
0.10928694903850555 -0.0580894760787487 0.10192635655403137
0.03501052409410477 -0.12129548192024231 -0.023331401869654655
0.11422689259052277 -0.06385181844234467 0.09955979883670807
0.06090252846479416 -0.10140189528465271 -0.1589144766330719
-0.11195995658636093 0.02340235747396946 0.003717762418091297
-0.015667185187339783 -0.0887044370174408 -0.19036906957626343
-0.06730588525533676 -0.025881130248308182 -0.12642167508602142
0.10745644569396973 -0.05532673001289368 -0.0026282556354999542
-0.050549592822790146 -0.06197146326303482 -0.2671254873275757
-0.07796097546815872 0.08014334738254547 0.13986091315746307
-0.10897520929574966 0.04605833441019058 -0.06764639914035797
0.12421447038650513 -0.05395727604627609 0.027168314903974533
0.05990525707602501 -0.09562449157238007 0.006824193522334099
0.02854394167661667 -0.11918070912361145 -0.017023952677845955
0.05988495424389839 -0.10616764426231384 -0.17755399644374847
-0.0364229679107666 0.13558827340602875 0.011079985648393631
0.06056345999240875 -0.10774940997362137 0.21119840443134308
0.0953635647892952 -0.07347066700458527 -0.02855571359395981
-0.08786006271839142 0.053278371691703796 0.028713064268231392
-0.01672026701271534 -0.023134777322411537 -0.34455716609954834
-0.06370921432971954 0.042201682925224304 -0.20091983675956726
-0.004592378623783588 -0.1007576584815979 -0.19791680574417114
0.14466115832328796 -0.03402441740036011 -0.14412038028240204
0.09669645130634308 -0.09660159051418304 -0.13795064389705658
-0.09901605546474457 0.026624873280525208 0.02179780602455139
-0.03389223292469978 -0.04828161001205444 -0.21506881713867188
0.11474351584911346 -0.055248141288757324 0.08201098442077637
-0.06082334741950035 0.12932069599628448 -0.21525007486343384
-0.0836072564125061 0.10386544466018677 0.15491656959056854
0.12075896561145782 -0.04476844146847725 -0.036124881356954575
0.10411973297595978 -0.04954894632101059 -0.0030891771893948317
0.056387998163700104 -0.09326733648777008 0.11050045490264893
-0.05804090201854706 0.09395241737365723 0.07432372123003006
-0.09046632051467896 0.014674765057861805 0.08744816482067108
0.14000120759010315 -0.029826141893863678 0.020873863250017166
-0.11755354702472687 0.0286529753357172 -0.050243113189935684
-0.08552925288677216 0.06065668165683746 0.0418953001499176
-0.052950650453567505 0.11739341169595718 0.06124790012836456
-0.11034394800662994 0.0054520051926374435 -0.08826291561126709
-0.09608032554388046 0.07176914811134338 -0.13258153200149536
0.12127593159675598 -0.08762393891811371 0.34182214736938477
-0.11688212305307388 -0.014411646872758865 0.22822898626327515
0.08526606857776642 -0.07309342920780182 -0.027987323701381683
-0.053201671689748764 0.11903327703475952 -0.08386421203613281
-0.06397474557161331 0.10399998724460602 -0.18666672706604004
-0.11386977136135101 0.049782730638980865 0.1411363184452057
-0.10717388987541199 0.04577527940273285 0.1497420370578766
0.1287955790758133 -0.0343053936958313 0.060806628316640854
0.0604591891169548 -0.08671655505895615 0.007321851793676615
-0.0457286611199379 0.1302749216556549 0.05039771646261215
-0.03213189169764519 -0.1213013306260109 -0.13282276690006256
-0.048423826694488525 0.11269084364175797 -0.037967585027217865
-0.07829047739505768 0.0552765354514122 -0.10364023596048355
0.1116761863231659 -0.05517334118485451 0.004525275900959969
-0.12464989721775055 -0.002403203397989273 -0.10533758997917175
-0.0049843378365039825 -0.11141959577798843 0.1608407199382782
0.04834919050335884 -0.09757283329963684 -0.03324609249830246
0.0035949647426605225 -0.09499809145927429 -0.26999497413635254
-0.07766208052635193 0.08755511045455933 -0.06582242250442505
-0.06470997631549835 -0.02663724683225155 -0.2121109515428543
-0.10401242226362228 -0.0278052669018507 -0.04446326941251755
0.10954388976097107 -0.05337502062320709 0.013343047350645065
-0.1018260046839714 0.026379572227597237 0.1313275247812271
-0.12152494490146637 -0.009968027472496033 -0.06518799811601639
0.003168625757098198 -0.12983816862106323 -0.15551497042179108
-0.07174514979124069 -0.07974615693092346 0.08207579702138901
-0.09061935544013977 0.07765106111764908 0.017297275364398956
0.06194484606385231 -0.08834771811962128 -0.00012187985703349113
-0.06255409866571426 0.1343684196472168 -0.26874399185180664
-0.08733828365802765 -0.05760730057954788 -0.12468928098678589
0.11634869873523712 -0.07764910161495209 -0.12790833413600922
0.1094558984041214 -0.061609551310539246 0.037938192486763
0.09110137075185776 -0.07511847466230392 -0.03196339309215546
-0.04792952537536621 0.11759886145591736 0.011943329125642776
0.14448107779026031 -0.03394744172692299 0.07520347833633423
-0.054052937775850296 0.10845580697059631 0.06819944083690643
-0.07659314572811127 0.04365810751914978 -0.29490673542022705
0.11424251645803452 -0.052062857896089554 -0.024819839745759964
0.1624736189842224 -0.0487050861120224 0.18163913488388062
0.06906666606664658 -0.09234899282455444 0.11646711826324463
-0.10432378202676773 0.10437431931495667 0.3230878710746765
0.055695511400699615 -0.09798083454370499 0.031534358859062195
-0.0426163449883461 -0.10872037708759308 -0.18743683397769928
0.07429377734661102 -0.102365642786026 0.34858930110931396
0.11246626079082489 -0.08836433291435242 0.2442418932914734
-0.06543980538845062 -0.08489224314689636 -0.034977126866579056
0.10675232112407684 -0.052041053771972656 0.0034117517061531544
-0.06240313500165939 0.06419215351343155 -0.32462218403816223
-0.09266266226768494 0.052468910813331604 0.03093118965625763
0.0004547610878944397 -0.1264902502298355 0.0029511931352317333
-0.10231499373912811 0.0389258898794651 0.12265145778656006
0.08876031637191772 -0.07108138501644135 -0.032329488545656204
0.10238130390644073 -0.07104289531707764 0.03996674716472626
0.09064405411481857 -0.083478182554245 0.13398276269435883
-0.09298406541347504 0.05570875108242035 0.022959059104323387
-0.08765061944723129 0.06279304623603821 -0.2598923444747925
0.09609001874923706 -0.09322062134742737 -0.13701997697353363
-0.09023822844028473 0.03330943360924721 0.11597009748220444
0.11012071371078491 -0.0555429570376873 -0.0035475334152579308
-0.08709780126810074 0.058698005974292755 0.02432650700211525
-0.05500757694244385 0.02853742241859436 -0.341813325881958
-0.06305289268493652 0.12287729233503342 0.18776142597198486
-0.1189044937491417 0.03244534134864807 0.3031644821166992
-0.022011835128068924 0.046426739543676376 -0.21343980729579926
-0.04306349903345108 -0.09849482774734497 -0.19464081525802612
0.05436215549707413 -0.09732574224472046 0.10757549107074738
0.015229810029268265 -0.12987619638442993 -0.09808911383152008
0.10829398781061172 -0.05103331059217453 -0.3961958587169647
-0.10422234982252121 0.04283367097377777 0.0695783793926239
-0.08744080364704132 0.14534226059913635 0.3585287928581238
0.08241551369428635 -0.09730659425258636 0.14531806111335754
0.08810564875602722 -0.06831200420856476 -0.026188917458057404
0.06710254400968552 -0.07461471110582352 -0.33237791061401367
0.005468869581818581 -0.10916966199874878 -0.18095149099826813
0.026723485440015793 -0.11686433851718903 -0.027757791802287102
0.11174412071704865 -0.0513833649456501 0.003255775198340416
-0.08934177458286285 0.10010462999343872 -0.03363591432571411
-0.05718245729804039 0.04475102573633194 -0.29821473360061646
-0.07763966917991638 0.14612220227718353 0.39846986532211304
-0.05667503550648689 0.1177620142698288 -0.0012104213237762451
-0.08431356400251389 0.06603816151618958 -0.16465440392494202
0.06597772240638733 -0.10585713386535645 -0.07803376764059067
-0.051407501101493835 0.12092360854148865 -0.3168719708919525
0.008971800096333027 -0.11495377868413925 -0.13985508680343628
0.10402890294790268 -0.06257275491952896 0.009506798349320889
0.08519982546567917 -0.10493123531341553 0.20322078466415405
0.0183583851903677 -0.09932652115821838 0.1804109811782837
0.11511050164699554 -0.04797562584280968 -0.029106110334396362
-0.08670711517333984 0.08287455141544342 -0.16077828407287598
-0.11379134654998779 0.06426672637462616 0.014051230624318123
-0.05547212064266205 0.12164802849292755 -0.08211994916200638
-0.04801095277070999 0.10810549557209015 0.009245572611689568
-0.12413109838962555 -0.017848767340183258 0.2013627290725708
-0.08159215748310089 0.08946218341588974 0.12388642877340317
-0.04579337686300278 -0.08923599869012833 -0.14210300147533417
-0.03204192966222763 -0.09560471773147583 -0.1813032031059265
0.06034249812364578 -0.05706147104501724 -0.19321690499782562
-0.07646843791007996 0.09348206222057343 0.07254021614789963
-0.0146719291806221 -0.1078193187713623 0.2024642825126648
-0.06930693238973618 0.11320260912179947 -0.040308330208063126
0.05765524506568909 -0.10169324278831482 -0.09038879722356796
-0.1274527609348297 0.017742713913321495 0.24607135355472565
-0.07659772038459778 0.08842085301876068 -0.026670226827263832
0.046100914478302 -0.08681312203407288 0.04354455694556236
-0.06827570497989655 0.09316036850214005 -0.09281723201274872
-0.09502187371253967 0.062416210770606995 0.06656906753778458
-0.056564103811979294 0.11909466236829758 0.05438399314880371
0.015217889100313187 -0.12401382625102997 -0.11136296391487122
0.09938016533851624 -0.05245610326528549 0.004672558046877384
-0.0889931246638298 0.02247883565723896 0.002317830454558134
0.11496739089488983 -0.054664433002471924 0.0024378523230552673
0.011266598477959633 -0.1345493346452713 -0.08975891768932343
-0.07178883999586105 0.101398766040802 -0.15519434213638306
-0.06306254863739014 -0.028949106112122536 -0.3091249465942383
-0.08000538498163223 0.0016118036583065987 -0.19467878341674805
0.046479858458042145 -0.12270137667655945 -0.12197627872228622
-0.11003656685352325 0.03974233940243721 -0.1642034500837326
0.10121454298496246 -0.05678326636552811 -0.0038190693594515324
-0.06276188790798187 0.10777539014816284 0.1575363129377365
0.11981071531772614 -0.055292364209890366 -0.025466356426477432
-0.07618184387683868 0.09656672924757004 0.1451290249824524
-0.06377846002578735 -0.029060425236821175 0.1705973893404007
-0.08454826474189758 0.095738485455513 0.16699737310409546
0.12761202454566956 -0.08242043852806091 0.3831448554992676
0.028981108218431473 -0.11296012252569199 0.06857191771268845
0.05025557428598404 -0.11292445659637451 -0.14267376065254211
0.016481462866067886 -0.043839991092681885 -0.22408917546272278
0.09715469926595688 -0.0986667275428772 0.21552780270576477
-0.09267611801624298 0.05056728795170784 0.019824950024485588
-0.05472204461693764 0.15084487199783325 0.20661231875419617
0.06108413264155388 -0.08774495124816895 0.0021136323921382427
0.125406876206398 -0.053215134888887405 -0.030322343111038208
-0.11642508208751678 0.07196291536092758 0.32940050959587097
-0.0627230554819107 -0.03409590944647789 -0.2980496883392334
-0.09835638105869293 -0.0466354675590992 0.26497143507003784
0.10543487966060638 -0.08251132816076279 -0.20133350789546967
-0.12388716638088226 -0.006840893998742104 0.1672254055738449
0.07425639033317566 -0.08275026082992554 0.06588659435510635
0.053832266479730606 -0.0984790250658989 0.10465727746486664
0.0599740594625473 -0.08975735306739807 0.004557101521641016
-0.07888138294219971 0.08213680982589722 -0.20413313806056976
0.05805838853120804 -0.1202884167432785 -0.13707442581653595
0.0935206264257431 -0.007088964805006981 -0.41724032163619995
-0.06472600251436234 0.09886305034160614 0.0856727659702301
0.07396260648965836 -0.0972663015127182 0.1373623013496399
-0.09134101122617722 0.07571753859519958 0.12945017218589783
-0.11351818591356277 0.017553504556417465 -0.15742075443267822
-0.023830596357584 -0.09842436760663986 0.14162486791610718
-0.09432628750801086 0.060878071933984756 0.02288358099758625
-0.06415774673223495 0.121796153485775 -0.030518947169184685
0.05950700119137764 -0.10049384832382202 -0.1526719331741333
0.06934170424938202 -0.0025108009576797485 -0.5225149393081665
0.09941212832927704 -0.0738944411277771 -0.038649410009384155
0.01859925501048565 -0.08532485365867615 -0.306515634059906
0.08642803877592087 -0.06961780786514282 -0.026425393298268318
0.10725416243076324 -0.05427653342485428 0.0016932758735492826
-0.0710708349943161 0.013715304434299469 -0.3250771164894104
0.11823707818984985 -0.05059327185153961 0.10263926535844803
0.11807108670473099 -0.045606013387441635 0.014223920181393623
-0.11459885537624359 -0.04634680598974228 -0.18315963447093964
0.031354546546936035 -0.12342879176139832 0.40798068046569824
-0.11776167154312134 0.098043292760849 0.40170371532440186
0.01700533553957939 -0.029964502900838852 -0.3535791039466858
-0.1180376261472702 -0.02686377428472042 0.04548506438732147
-0.0770975798368454 0.04042292386293411 -0.18848571181297302
0.007969792932271957 -0.10248027741909027 -0.2740820348262787
0.060062967240810394 -0.10364246368408203 -0.08976683765649796
-0.08246929943561554 0.015437756665050983 -0.12867146730422974
0.06170538067817688 -0.09606912732124329 -0.002278619445860386
-0.08519501239061356 -0.07282990217208862 0.06346415728330612
-0.10284130275249481 0.062407754361629486 0.1883571892976761
0.10746847093105316 -0.05390455201268196 -0.005429343320429325
0.11365382373332977 -0.10513083636760712 -0.28047093749046326
0.10986872017383575 -0.08242680132389069 -0.1396324336528778
0.1120217889547348 -0.05493298918008804 0.0004540947265923023
-0.07099655270576477 -0.060863614082336426 -0.20230050384998322
-0.0614083893597126 0.10229163616895676 -0.15850846469402313
-0.044526029378175735 -0.10114617645740509 0.13338446617126465
0.05952637642621994 -0.08924552798271179 0.0036846434231847525
-0.0707985907793045 -0.016004374250769615 -0.27048420906066895
0.04314419999718666 -0.11950790882110596 0.39847999811172485
0.027069076895713806 -0.1081819087266922 -0.1835518181324005
0.0021776463836431503 -0.10689204931259155 0.2541271448135376
0.09043289721012115 -0.07186166942119598 -0.016967443749308586
0.049642037600278854 -0.09165694564580917 0.05861243978142738
-0.1319981813430786 0.015654677525162697 0.3836001753807068
0.1055869311094284 -0.06346460431814194 0.08844161033630371
0.11560271680355072 -0.051487818360328674 0.00793176144361496
0.11193220317363739 -0.05420401692390442 -0.0037452869582921267
0.032597675919532776 -0.10587521642446518 -0.03862614184617996
-0.08912704885005951 0.049403492361307144 0.14385803043842316
-0.07518579065799713 0.07481031864881516 -0.22218674421310425
0.05484630912542343 -0.09801708161830902 -0.049215253442525864
-0.08034636080265045 0.04434279352426529 -0.18313372135162354
-0.11044076085090637 0.040689218789339066 0.05937879532575607
-0.10427278280258179 0.036659110337495804 0.01268891990184784
-0.0964621752500534 0.030151069164276123 0.021608835086226463
0.14519160985946655 -0.02977265603840351 -0.09569434076547623
0.037235964089632034 -0.029796889051795006 -0.4235289394855499
-0.06522130966186523 -0.07687325030565262 0.20451651513576508
-0.0855790376663208 0.060914237052202225 0.028580088168382645
0.09959723055362701 -0.07497479021549225 -0.031852804124355316
0.11181291937828064 -0.063878633081913 0.10337045788764954
0.09071502834558487 -0.1010890007019043 -0.1383061408996582
0.052770353853702545 -0.11126801371574402 0.31443536281585693
-0.05514628812670708 0.10775089263916016 -0.11586595326662064
-0.11242242157459259 0.033686429262161255 0.05813242867588997
-0.045058369636535645 -0.09738580137491226 -0.19046548008918762
-0.08221060037612915 0.08658930659294128 0.026712026447057724
-0.04951523244380951 -0.10836556553840637 -0.056064534932374954
0.11337140202522278 -0.05003011226654053 0.004363274201750755
0.05411697179079056 -0.10460203886032104 -0.10751203447580338
-0.11343113332986832 0.09515736997127533 0.30974331498146057
-0.01374228298664093 -0.10932888835668564 0.17906224727630615
-0.11605390906333923 0.01757717691361904 0.11419457197189331
0.08966220915317535 -0.08055673539638519 -0.02724999375641346
-0.06468676030635834 0.15668722987174988 0.34750351309776306
-0.07952267676591873 0.10761730372905731 -0.1429004967212677
0.0903574675321579 -0.08730106055736542 0.17123401165008545
-0.07906713336706161 0.08046314865350723 0.11455148458480835
-0.09489849209785461 0.03211415559053421 0.02345128543674946
0.09223401546478271 -0.0718475952744484 -0.031032290309667587
0.09868625551462173 -0.09236887842416763 0.20421352982521057
0.1091577559709549 -0.10533828288316727 -0.22063882648944855
-0.012911277823150158 -0.07229811698198318 -0.21053068339824677
-0.11168492585420609 0.05077967792749405 0.21456223726272583
-0.08678876608610153 0.0816589966416359 0.020999791100621223
-0.11330593377351761 0.05008801445364952 0.20114845037460327
0.09435976296663284 -0.07072901725769043 -0.025105247274041176
0.04927075281739235 -0.10195362567901611 -0.10128438472747803
0.08851993083953857 -0.07546791434288025 -0.029940485954284668
-0.02335812896490097 -0.0893627256155014 -0.20701344311237335
0.06332117319107056 -0.0866430252790451 0.0034099556505680084
0.05915739759802818 -0.08134797215461731 0.005132671445608139
0.01715703308582306 -0.10013360530138016 -0.18620046973228455
-0.025438757613301277 0.13528752326965332 0.008033884689211845
-0.07776576280593872 0.0689958781003952 -0.19246354699134827
-0.06857649236917496 0.10047261416912079 -0.1953568458557129
-0.10828880220651627 -0.07409162819385529 -0.12151903659105301
-0.0796523168683052 0.03948593884706497 -0.20717693865299225
-0.06175432726740837 0.10122987627983093 -0.029493799433112144
-0.03401411324739456 -0.06178565323352814 -0.23178964853286743
-0.11128806322813034 0.07396844029426575 -0.10402241349220276
-0.06239850074052811 0.16323895752429962 0.27572399377822876
0.006725415587425232 0.03782222419977188 -0.513105034828186
0.019278328865766525 -0.02574213594198227 -0.4165917634963989
-0.11940653622150421 0.02884090691804886 0.18825165927410126
-0.07648126780986786 0.10658759623765945 -0.1459938883781433
-0.11543053388595581 -0.0030094869434833527 0.09806030988693237
-0.03788290172815323 -0.03204529359936714 -0.026990722864866257
0.023330941796302795 -0.13816183805465698 -0.12268475443124771
-0.12390270829200745 0.023287340998649597 0.20639830827713013
-0.09885618090629578 0.06537492573261261 0.049285657703876495
0.08733370155096054 -0.07323751598596573 -0.023194028064608574
0.047528620809316635 -0.1049739271402359 -0.1762804090976715
-0.09533223509788513 0.09512799978256226 0.21074722707271576
0.04878117889165878 -0.10364653170108795 -0.03440369665622711
0.11973823606967926 -0.08022665977478027 -0.14547407627105713
-0.07082201540470123 0.02905985340476036 -0.33749523758888245
-0.09727998077869415 0.025199176743626595 0.01880701072514057
0.09768505394458771 -0.07322961091995239 -0.15800538659095764
0.02407877892255783 -0.10447126626968384 -0.02866004779934883
-0.008528109639883041 -0.016445016488432884 -0.39711374044418335
-0.1104162335395813 0.03994743525981903 0.11798720806837082
0.06094640493392944 -0.08685415983200073 0.006002345122396946
-0.12079142779111862 0.020212475210428238 -0.012001893483102322
-0.06595223397016525 -0.0299973227083683 -0.19387578964233398
-0.07885248214006424 0.09635894000530243 0.08291739225387573
0.0011913329362869263 -0.11847183108329773 -0.17790290713310242
-0.11767110228538513 -0.0030453649815171957 0.0966261625289917
-0.1163025051355362 -0.04170814901590347 0.2946861982345581
-0.07879465818405151 0.036675482988357544 -0.19704517722129822
0.08286036550998688 -0.12178407609462738 0.31621384620666504
0.06079696863889694 -0.09395723044872284 -2.349202986806631e-05
0.09524734318256378 -0.06709547340869904 -0.03533115237951279
-0.027043718844652176 -0.07289288938045502 -0.250851035118103
-0.10898354649543762 0.0925104171037674 0.35577452182769775
0.030609851703047752 -0.1068379282951355 0.11463233828544617
-0.012783266603946686 -0.10601860284805298 0.22196784615516663
-0.11173374950885773 0.03970246762037277 0.12477123737335205
-0.11730663478374481 0.07377190887928009 0.31456655263900757
-0.09693634510040283 0.03736349567770958 0.016224700957536697
-0.09030549228191376 0.06616377085447311 0.018595976755023003
-0.07157381623983383 0.09313462674617767 0.055477336049079895
0.0036351140588521957 -0.10077854245901108 -0.21634283661842346
0.10423050820827484 -0.10946062207221985 0.3358229100704193
-0.04979843646287918 -0.032880283892154694 -0.19761249423027039
0.06443747133016586 -0.1065860465168953 -0.11984833329916
0.08411466330289841 -0.06909060478210449 -0.02188955619931221
0.0656953826546669 -0.09132348746061325 0.14767828583717346
0.10756413638591766 -0.09105391800403595 0.19600777328014374
-0.0001458302140235901 -0.0748065635561943 0.11681701242923737
0.11216562241315842 -0.0967225432395935 0.22063776850700378
0.10471662878990173 -0.05714999884366989 -0.0011478131636977196
-0.06374631822109222 0.012441879138350487 -0.07068067789077759
0.033520326018333435 -0.11541371792554855 0.03345482423901558
0.09828181564807892 -0.0988582894206047 -0.12868764996528625
-0.09357614070177078 0.033322401344776154 0.00920051522552967
-0.10391531884670258 0.05096980184316635 -0.16128918528556824
0.04784851893782616 -0.10822421312332153 0.2445712685585022
-0.08020281046628952 0.10137315094470978 -0.3036133646965027
0.055979400873184204 -0.11867356300354004 0.4039294719696045
-0.08372318744659424 -0.0726311206817627 0.15814730525016785
-0.06381184607744217 0.11720933020114899 -0.1146341860294342
0.015454314649105072 -0.12307168543338776 -0.1576329618692398
-0.11017049849033356 0.05885930359363556 0.17657692730426788
-0.09287559986114502 0.040757324546575546 -0.07076510041952133
-0.10163629800081253 0.031168006360530853 0.17200234532356262
-0.07779878377914429 0.05002550408244133 -0.3042451739311218
-0.03054128587245941 0.12424179166555405 -0.03435621038079262
0.08633393049240112 -0.08495448529720306 -0.29341772198677063
0.043740250170230865 -0.1072922945022583 -0.03538934886455536
0.06007339060306549 -0.1083461195230484 0.23928743600845337
-0.11496907472610474 0.026417849585413933 0.0826251208782196
-0.006547786295413971 -0.10948019474744797 0.32994088530540466
0.10751902312040329 -0.0497383177280426 -0.0038462337106466293
-0.0864950492978096 0.0737517848610878 0.02408873289823532
0.05213367938995361 -0.09498615562915802 0.12527137994766235
-0.07612109184265137 0.01927746646106243 -0.19154679775238037
-0.10271401703357697 0.07620100677013397 0.1396714448928833
0.0891823023557663 -0.07521481812000275 -0.02864760346710682
-0.0937991738319397 0.03729763627052307 -0.17116951942443848
0.035500071942806244 -0.10314351320266724 0.21501734852790833
-0.0985850989818573 0.07173328101634979 0.13525299727916718
-0.08400483429431915 -0.08593545854091644 0.0016458702739328146
-0.06340808421373367 0.1025959923863411 0.05557447671890259
-0.1256607472896576 0.043635785579681396 0.33789879083633423
-0.07003599405288696 -0.07860291004180908 0.1932809203863144
0.11221276223659515 -0.06561341136693954 -0.05418583005666733
-0.04228600859642029 -0.10322091728448868 -0.0315786749124527
0.11757364869117737 -0.056406281888484955 0.01579590141773224
-0.0925615057349205 0.09899961948394775 0.23800349235534668
-0.0862458348274231 0.05751397833228111 0.016546281054615974
0.09916749596595764 -0.07060544192790985 -0.024712219834327698
-0.09482572972774506 -0.04619254544377327 0.09688521176576614
-0.046924468129873276 -0.04934069514274597 -0.16118621826171875
0.08934088796377182 -0.07303903996944427 -0.01971476525068283
-0.04876041039824486 -0.06472824513912201 -0.3412797152996063
0.11101852357387543 -0.07842177897691727 -0.12206879258155823
0.01893758215010166 0.06063070893287659 -0.4776109457015991
-0.07862162590026855 0.020744632929563522 0.13147464394569397
0.10596993565559387 -0.056647658348083496 -0.000983822625130415
-0.06921924650669098 0.10433541983366013 0.0474250428378582
0.08181547373533249 -0.07546432316303253 -0.02277592569589615
-0.10870605707168579 0.07864508777856827 0.1559092104434967
-0.1117992103099823 0.06501602381467819 0.2322266548871994
-0.11502037942409515 0.11460564285516739 0.388411283493042
0.1330631971359253 -0.04087238386273384 0.07087189704179764
-0.08149959146976471 0.039261892437934875 -0.170528843998909
0.06241396814584732 -0.08939516544342041 0.05171618238091469
0.08256888389587402 -0.09590699523687363 0.22149403393268585
0.05488850921392441 -0.10873779654502869 0.33261558413505554
0.061274752020835876 -0.09820830821990967 -0.17006681859493256
-0.03224386274814606 -0.09728701412677765 0.2932809591293335
0.10468767583370209 -0.05340921878814697 -0.0013004839420318604
0.09290669858455658 -0.08703715354204178 -0.09003059566020966
0.055438220500946045 -0.08573037385940552 0.10763011872768402
-0.10693120211362839 -0.020077984780073166 0.04172735661268234
-0.08766162395477295 0.04281044006347656 0.02038499154150486
0.057072389870882034 -0.09126418083906174 -0.00029260851442813873
0.033287789672613144 -0.08467625826597214 0.10075196623802185
-0.12061452865600586 -0.04230956733226776 -0.14692014455795288
0.03920150548219681 -0.018885307013988495 -0.4954260587692261
-0.035194795578718185 0.11829417198896408 -0.010248753242194653
0.10219533741474152 -0.08000126481056213 -0.10944066941738129
-0.1054345965385437 0.0550534725189209 0.12889878451824188
0.1015641987323761 -0.06205994635820389 0.09375058114528656
-0.060623373836278915 -0.062207579612731934 -0.19405242800712585
-0.08944669365882874 0.05161917954683304 0.02370969019830227
0.12142618000507355 -0.05266093462705612 -0.040563520044088364
-0.11048799753189087 0.06879466027021408 -0.14576828479766846
0.10551103949546814 -0.05223511904478073 0.004173033870756626
0.1115805059671402 -0.05005010962486267 0.003611445426940918
0.06088081747293472 -0.08665940910577774 0.002658987417817116
0.010397085919976234 -0.11875458806753159 -0.02913258969783783
-0.046316444873809814 -0.10410287976264954 -0.040170300751924515
0.09524178504943848 -0.07751315832138062 -0.024046972393989563
-0.11589605361223221 0.04749499633908272 0.3392186760902405
-0.06162611022591591 0.013176151551306248 -0.002614561701193452
-0.1231406182050705 -0.004186365753412247 -0.12749306857585907
0.08940812945365906 -0.06805218011140823 -0.026692118495702744
-0.10002976655960083 0.007074185647070408 0.030931316316127777
-0.05358874797821045 -0.04890012741088867 0.07752952724695206
0.04809792712330818 -0.10119818150997162 -0.026914769783616066
-0.047667115926742554 0.12617969512939453 0.03048224188387394
-0.062167905271053314 0.1411229968070984 0.21986308693885803
-0.05975788086652756 -0.06450385600328445 -0.18714375793933868
-0.05328909680247307 0.15495096147060394 0.22626711428165436
-0.048226114362478256 0.11755330860614777 -0.005268985405564308
-0.08913655579090118 0.056901007890701294 0.024352604523301125
-0.06527091562747955 0.13418395817279816 0.2003806233406067
0.11340463161468506 -0.07983577251434326 -0.14758534729480743
-0.060683414340019226 -0.10588602721691132 -0.07627930492162704
-0.06282371282577515 0.08985944092273712 0.03344966843724251
0.12222325056791306 -0.0296181533485651 -0.03066534921526909
-0.07061506807804108 0.021411634981632233 0.029940200969576836
-0.12662647664546967 0.00963284820318222 0.2951861619949341
0.042397640645504 -0.08577591925859451 -0.3585052490234375
0.04710891470313072 -0.11249615252017975 0.188437819480896
-0.11543045938014984 0.052695874124765396 0.2538359761238098
0.09081316739320755 -0.07499706745147705 -0.024625692516565323
0.01758885756134987 -0.1209036260843277 -0.11232505738735199
-0.05886286497116089 -0.06465111672878265 -0.20154890418052673
-0.10501139611005783 0.0614960640668869 0.12852707505226135
0.07968392968177795 -0.08635686337947845 -0.03379862755537033
-0.03693920001387596 -0.11262021213769913 -0.003170040436089039
0.11008027195930481 -0.049437008798122406 0.003682587295770645
-0.05051269009709358 0.11388476938009262 -0.058352451771497726
0.1078653633594513 -0.05626197159290314 0.004929946735501289
-0.08946099877357483 0.08821892738342285 0.17175814509391785
-0.032386548817157745 0.12677861750125885 0.0812470018863678
0.11504155397415161 -0.05070370063185692 -0.004945504013448954
-0.10284978151321411 0.08113911002874374 0.186247780919075
-0.08272029459476471 0.015345362015068531 -0.2483755350112915
-0.04795391857624054 0.1184769794344902 -0.07305797189474106
0.04871097207069397 -0.09611266106367111 0.08236422389745712
0.08954077214002609 -0.0710311308503151 -0.02710913121700287
0.09128116816282272 -0.09476949274539948 -0.1362956017255783
-0.11491113901138306 0.03075440600514412 0.0266302227973938
-0.05784168839454651 0.06408125907182693 -0.0461590401828289
-0.054663751274347305 0.11945080012083054 0.13646200299263
0.07177188247442245 -0.08294972032308578 0.053270842880010605
-0.016662156209349632 -0.11650972068309784 0.1073455810546875
0.027435682713985443 -0.11549986898899078 -0.034667935222387314
-0.0681827962398529 0.10621125251054764 -0.25265148282051086
0.058754824101924896 -0.1057291328907013 0.010993080213665962
0.08646644651889801 -0.09621638804674149 0.20782598853111267
0.036764275282621384 -0.07791918516159058 -0.34013721346855164
0.005722938105463982 -0.11532211303710938 -0.1834501177072525
0.08903700113296509 -0.07687117159366608 -0.023833665996789932
0.11507022380828857 -0.04755409434437752 -0.04755263030529022
-0.10151313245296478 0.020254405215382576 -0.01804513856768608
0.11723871529102325 -0.053328096866607666 -0.0036794417537748814
0.11292747408151627 -0.0779658630490303 -0.35321104526519775
0.0013894643634557724 8.68476927280426e-05 -0.4079398512840271
-0.11321279406547546 0.0042443000711500645 0.13997378945350647
-0.09269742667675018 0.08723991364240646 0.15137028694152832
0.1126408576965332 -0.0538221150636673 0.006506823468953371
-0.0926489382982254 0.1085129976272583 0.23048454523086548
0.05844669044017792 -0.0877281129360199 0.005151540506631136
0.09152732789516449 -0.07569606602191925 -0.031472038477659225
0.11285249888896942 -0.0529838390648365 -0.007054927758872509
-0.13108043372631073 -0.028762148693203926 0.33554381132125854
-0.07979351282119751 0.013896916061639786 -0.27674204111099243
-0.08409268409013748 0.0777151808142662 -0.11391974985599518
0.06101173162460327 -0.08730308711528778 0.004126879386603832
-0.012105186469852924 -0.1101674884557724 0.14269988238811493
0.1061861664056778 -0.055894121527671814 -0.009019957855343819
0.05325060710310936 -0.08115775883197784 0.0615716390311718
0.12004310637712479 -0.08750304579734802 0.17317302525043488
-0.004997972398996353 -0.09448850154876709 -0.21091759204864502
-0.059737034142017365 0.10182832181453705 0.04062969610095024
0.08861669152975082 -0.07902328670024872 -0.02441909909248352
-0.06986673176288605 0.10680847615003586 0.02737610787153244
-0.1257433444261551 0.0688713788986206 0.39927712082862854
0.1128009483218193 -0.05894819647073746 0.10264047980308533
-0.05278521031141281 -0.03709717094898224 -0.0801333636045456
0.11166861653327942 -0.053814347833395004 0.00860675424337387
0.031100591644644737 -0.11107232421636581 0.10329544544219971
-0.058578237891197205 0.10143281519412994 0.0016467180103063583
0.09691639244556427 -0.08986399322748184 -0.12709948420524597
-0.08018991351127625 -0.05061096325516701 0.07886449247598648
0.061587683856487274 -0.12425681948661804 -0.13888336718082428
-0.08854592591524124 0.05368774011731148 0.02711276151239872
0.0702241063117981 -0.08787915110588074 -0.0023472399916499853
0.06391216814517975 -0.08731776475906372 0.007231099531054497
0.0924653708934784 -0.07504449784755707 -0.029360512271523476
-0.039882466197013855 -0.013434341177344322 -0.3646875321865082
-0.10735299438238144 -0.01410411112010479 -0.005444721318781376
-0.12812627851963043 0.049400754272937775 0.28662052750587463
-0.03249969333410263 -0.07590115070343018 -0.0327274464070797
0.09268994629383087 -0.09994371980428696 -0.11486665904521942
-0.061381012201309204 0.10552965104579926 -0.10934408754110336
-0.02232019230723381 0.09057755768299103 -0.4006028175354004
0.029607633128762245 -0.116692915558815 0.19529670476913452
-0.09252393245697021 -0.03505660220980644 0.3758696913719177
0.10654643923044205 -0.05489519238471985 0.0007417802698910236
0.04120927304029465 -0.09458421170711517 -0.02209140919148922
-0.04904419183731079 0.10872933268547058 -0.09369882196187973
0.06293375790119171 -0.03361883759498596 -0.3188779950141907
-0.05138688534498215 0.09663328528404236 -0.1912779062986374
0.08541835844516754 -0.06621918082237244 -0.02302900329232216
0.005207918584346771 0.04361908137798309 -0.413234144449234
0.1285085678100586 -0.06313326209783554 -0.155495285987854
-0.07005856931209564 0.1120431050658226 -0.16504043340682983
-0.043845973908901215 0.11901827901601791 0.060103170573711395
0.10841839760541916 -0.05158918723464012 0.00044065387919545174
-0.11101625859737396 0.040827445685863495 -0.0247872993350029
-0.05783006548881531 0.11572513729333878 -0.064521923661232
-0.04063043370842934 -0.06364614516496658 -0.2951497733592987
0.05181761831045151 -0.08733688294887543 0.053115617483854294
-0.03147107735276222 -0.08631713688373566 -0.20959998667240143
-0.11954760551452637 -0.022296492010354996 0.020324349403381348
-0.0006806887686252594 -0.0954635888338089 -0.2093498408794403
0.17068010568618774 -0.04601706564426422 0.34619781374931335
-0.11305159330368042 -0.041408516466617584 0.196740984916687
0.11005944013595581 -0.0534183531999588 0.002786007709801197
0.009047389030456543 -0.11779904365539551 -0.15541325509548187
-0.06604259461164474 -0.02264815755188465 -0.23615820705890656
-0.04705997556447983 -0.08228182792663574 0.28453338146209717
0.04708090052008629 -0.05869606137275696 -0.3835143446922302
-0.04639919474720955 0.03719988465309143 -0.40073585510253906
-0.07669024169445038 0.07454171776771545 0.051889680325984955
-0.06816373765468597 -0.025759916752576828 -0.21528935432434082
-0.09433561563491821 0.010467978194355965 0.006901700049638748
0.04641155153512955 -0.10329613089561462 -0.025572359561920166
-0.10326840728521347 0.03600336238741875 0.015671469271183014
0.06440901756286621 -0.08562663197517395 -0.20433972775936127
-0.09700193256139755 0.050206977874040604 0.15199014544487
-0.1210431382060051 0.0023317737504839897 0.34173867106437683
-0.08465324342250824 0.07178034633398056 -0.033981479704380035
-0.052021659910678864 0.1294478327035904 -0.2014930546283722
-0.09457139670848846 -0.07458695769309998 0.38242048025131226
-0.09966906905174255 0.06615334749221802 -0.006639808416366577
-0.019064346328377724 -0.08798886090517044 0.02804693579673767
-0.06295281648635864 -0.0449446439743042 0.03362247720360756
0.02652602456510067 -0.09735839068889618 -0.1787784844636917
0.03612375631928444 -0.10551941394805908 -0.13479392230510712
0.08244352042675018 -0.0839436873793602 -0.030637642368674278
-0.035441868007183075 0.017264509573578835 -0.3758753538131714
-0.09613244235515594 0.0336843766272068 0.06712295114994049
-0.055359240621328354 0.1155499741435051 -0.07145342230796814
0.1087692528963089 -0.052858032286167145 0.0019057849422097206
-0.05483418330550194 -0.05120750144124031 -0.19663399457931519
-0.08142775297164917 0.10669563710689545 0.19717951118946075
-0.03343520313501358 -0.10264453291893005 0.41189903020858765
-0.016185807064175606 -0.10431477427482605 0.022588999941945076
0.049361903220415115 -0.08553199470043182 -0.0368986502289772
0.08415423333644867 -0.07357093691825867 -0.026274140924215317
0.11054357141256332 -0.0517992340028286 -0.006854710169136524
0.08696629106998444 -0.0834619551897049 0.14874756336212158
0.08585147559642792 -0.06944437325000763 -0.019919343292713165
-0.06243545562028885 0.0005856622010469437 -0.35219019651412964
0.06652403622865677 -0.10010448098182678 -0.20424441993236542
-0.04883687570691109 0.051018476486206055 -0.35735368728637695
0.11213992536067963 -0.0747838169336319 -0.1182798519730568
-0.0790993720293045 0.05521857738494873 -0.014974469318985939
0.05210328474640846 -0.09560537338256836 0.04597548395395279
-0.06821431964635849 0.08734599500894547 -0.18223951756954193
-0.09174047410488129 -0.02162296697497368 0.22953136265277863
-0.11526336520910263 -0.018683336675167084 0.26248249411582947
0.045381903648376465 -0.10139064490795135 0.10475103557109833
0.11490973830223083 -0.054768066853284836 0.0017289351671934128
-0.08509810268878937 -0.08142468333244324 0.1493394374847412
-0.08224327862262726 0.052217453718185425 0.019012169912457466
-0.10052816569805145 0.030416950583457947 0.005685035139322281
-0.05937294289469719 0.12036247551441193 0.09519028663635254
0.11277475953102112 -0.08951430022716522 -0.1425282061100006
-0.11081654578447342 0.03874095529317856 0.17599189281463623
-0.02291123941540718 -0.12090907990932465 0.08284702152013779
-0.03550560399889946 0.11695477366447449 -0.09457536041736603
-0.043269991874694824 0.12518319487571716 0.07111510634422302
-0.08426238596439362 0.07363211363554001 -0.03900313749909401
-0.07658486068248749 -0.08578167110681534 0.20870248973369598
-0.07694892585277557 0.06430987268686295 -0.21453116834163666
0.1589077264070511 -0.05266629159450531 0.2728657126426697
-0.08924068510532379 0.03881676495075226 -0.010406159795820713
0.08564548194408417 -0.09077847003936768 -0.033999837934970856
0.09815989434719086 -0.07169024646282196 -0.02935495786368847
0.060495756566524506 -0.12078151106834412 -0.13520993292331696
-0.05443098396062851 0.09983471035957336 -0.20781216025352478
0.0946810245513916 -0.08907897770404816 -0.12038976699113846
-0.06887562572956085 0.10560107976198196 0.07709567248821259
-0.027122195810079575 -0.11673547327518463 -0.0030495580285787582
0.1099308580160141 -0.08974975347518921 0.2911025285720825
0.11146052181720734 -0.0515124648809433 0.0012636100873351097
0.11741630733013153 -0.0713256374001503 -0.10431317239999771
0.0451204888522625 -0.1151052862405777 0.3840101361274719
-0.09130384027957916 0.08402977883815765 0.14026187360286713
-0.12086569517850876 0.022227641195058823 0.12313547730445862
0.1008593887090683 -0.08467301726341248 0.12316995859146118
-0.0027189645916223526 -0.06528360396623611 0.01328229159116745
-0.11185280233621597 -0.031023787334561348 0.261787474155426
-0.09138904511928558 0.09155286848545074 0.1422555148601532
-0.04682749882340431 0.1076134741306305 0.010094826109707355
0.12163010239601135 -0.08272434771060944 0.1826610267162323
0.10122120380401611 -0.073188915848732 0.11963668465614319
-0.11827723681926727 0.02109590172767639 0.23775416612625122
0.03309271112084389 -0.11006738245487213 0.20606766641139984
0.11363193392753601 -0.05400558561086655 0.008219989016652107
-0.13331890106201172 0.027356136590242386 0.4187832176685333
-0.07933850586414337 0.022051556035876274 -0.20114359259605408
0.055966295301914215 -0.10063177347183228 -0.0028815465047955513
0.08856461942195892 -0.0771043598651886 -0.029852742329239845
-0.10429055988788605 -0.05018612742424011 -0.04244784265756607
0.05919096618890762 -0.08421596884727478 0.012058431282639503
0.10830634832382202 -0.05245380103588104 0.001237847376614809
0.12373599410057068 -0.043781474232673645 -0.029668673872947693
-0.08676578104496002 0.06872823089361191 0.015041036531329155
-0.05599521845579147 0.13312847912311554 0.18390682339668274
0.11627542972564697 -0.0760926902294159 -0.13516895473003387
-0.058414965867996216 0.0739455446600914 -0.009884359315037727
0.08692164719104767 -0.06874532252550125 -0.03069065697491169
-0.05377119034528732 -0.09598609805107117 0.27121761441230774
0.05925951153039932 -0.08651480078697205 0.010217424482107162
-0.040866490453481674 0.13762223720550537 0.1471284031867981
0.016398213803768158 -0.10756099969148636 -0.1759849637746811
-0.06900013983249664 -0.007191474549472332 -0.1789916306734085
-0.11642460525035858 0.0424712635576725 0.14513593912124634
-0.11467388272285461 0.012343846261501312 0.0019128629937767982
-0.10412345826625824 0.01229969784617424 0.07706466317176819
0.14922687411308289 -0.038324225693941116 -0.17091244459152222
0.11438699811697006 -0.048520252108573914 -0.017388684675097466
0.10104070603847504 -0.09333847463130951 -0.15455327928066254
0.10825009644031525 -0.07292132824659348 -0.10242529958486557
0.09459759294986725 -0.06105393171310425 -0.007725811563432217
0.03760123252868652 -0.09479798376560211 -0.021640364080667496
-0.05661338195204735 0.09519702941179276 -0.1651778519153595
0.08052777498960495 -0.07355470955371857 -0.021966105327010155
-0.038607947528362274 0.11206495761871338 -0.045029208064079285
0.0873546227812767 -0.07182444632053375 -0.0240202434360981
0.010626142844557762 -0.11465190351009369 0.03246514871716499
0.027683544903993607 -0.07800153642892838 -0.34073662757873535
0.0625339224934578 -0.10756739228963852 -0.14182579517364502
-0.023891469463706017 -0.08957590907812119 -0.05083412304520607
-0.10204090923070908 0.04684750363230705 0.17366400361061096
