0.05848338454961777 -0.06761112064123154 0.008636579848825932
-0.03818977624177933 0.0958993211388588 0.006186690181493759
0.15659284591674805 -0.06029438599944115 0.1766478568315506
-0.055415939539670944 -0.06354513764381409 0.3143574297428131
-0.07844287902116776 0.11170206218957901 -0.25234147906303406
0.028172094374895096 -0.07376336306333542 -0.034550994634628296
0.04634995386004448 -0.0658913105726242 0.05898280814290047
-0.06880496442317963 0.04102453589439392 0.028123898431658745
-0.01256624422967434 -0.04612375795841217 0.04724283516407013
0.05948943272233009 -0.07248145341873169 0.005991902202367783
-0.02924909070134163 -0.02009947970509529 -0.0797726958990097
-0.011993302963674068 -0.04601015895605087 0.04939417541027069
-0.06457705795764923 0.03710917383432388 0.019678056240081787
-0.08337606489658356 0.02866911143064499 0.11751507967710495
-0.06965946406126022 0.012935638427734375 0.06477054208517075
0.021916914731264114 -0.08012189716100693 -0.02757219970226288
0.006400970742106438 -0.05925627052783966 0.01696242392063141
-0.06339667737483978 0.022827986627817154 -0.12979932129383087
-0.02463480643928051 -0.09662561863660812 0.3292649984359741
-0.036406662315130234 -0.07437778264284134 0.23296985030174255
-0.09824343025684357 0.025462953373789787 -0.3158239722251892
0.020874906331300735 -0.08963601291179657 -0.027918394654989243
-0.07514825463294983 0.05066889896988869 -0.17341141402721405
0.06430575251579285 -0.06936624646186829 0.00044500723015516996
-0.06603499501943588 0.0592133030295372 -0.027092160657048225
0.11127729713916779 -0.053834736347198486 -0.004171954467892647
-0.12202030420303345 0.1334032416343689 0.3909812569618225
0.1979590803384781 -0.03383493795990944 0.283841609954834
-0.05203945189714432 0.10404625535011292 -0.08500902354717255
0.10729244351387024 -0.05706387013196945 0.0004677611868828535
-0.025580424815416336 0.12863752245903015 -0.030774196609854698
-0.0597258135676384 0.006201482843607664 -0.009630080312490463
0.05318334326148033 -0.11473646014928818 0.24382808804512024
-0.049210939556360245 0.003147563897073269 -0.056913457810878754
-0.030187103897333145 0.1172269731760025 -0.3667739927768707
-0.07220432162284851 0.04357554391026497 0.03256620466709137
-0.064657062292099 0.031483426690101624 0.07496635615825653
0.007299650460481644 -0.07224490493535995 0.13399100303649902
-0.051488012075424194 0.07100436091423035 -0.045928701758384705
0.06162077933549881 -0.06336500495672226 0.00674999738112092
0.11495774984359741 -0.057562973350286484 0.0035676592960953712
-0.055051565170288086 0.0058479104191064835 -0.0071142129600048065
0.12567895650863647 -0.08765430748462677 0.19447922706604004
-0.007753891870379448 -0.05587998032569885 0.017001520842313766
-0.10844438523054123 0.031344205141067505 0.2276332825422287
-0.04177366942167282 -0.004312627017498016 -0.05356656387448311
-0.06935937702655792 0.10090194642543793 -0.20390400290489197
-0.046401575207710266 0.10302850604057312 0.0003554634749889374
-0.0042005740106105804 -0.05879533663392067 0.019174650311470032
-0.076199971139431 0.04068046808242798 0.11565715819597244
-0.07703237235546112 0.05727008730173111 -0.19391284883022308
-0.03520738333463669 -0.06328899413347244 -0.16405868530273438
-0.07289574295282364 0.003284834325313568 0.11222568154335022
0.05351392179727554 -0.06294935941696167 -0.004991103895008564
0.0018261324148625135 -0.05126747861504555 0.006919045001268387
-0.08186175674200058 0.04564937204122543 -0.19636337459087372
-0.05704033002257347 -0.011644883081316948 -0.009351449087262154
-0.07699792087078094 -0.04017877206206322 0.28066039085388184
0.1073145791888237 -0.05441417172551155 0.003266584128141403
-0.05166149139404297 -0.008988168090581894 0.08132250607013702
0.11143471300601959 -0.0718420222401619 -0.13451826572418213
0.04241618514060974 -0.028116170316934586 -0.4877028167247772
0.13435007631778717 -0.08744785934686661 0.20568765699863434
0.128298819065094 -0.06334779411554337 -0.10013177245855331
0.06758406013250351 -0.09179963171482086 -0.1606661081314087
-0.10021965205669403 -0.029199790209531784 0.3915168344974518
0.03042394295334816 -0.08123960345983505 -0.031026888638734818
0.020787987858057022 -0.08555425703525543 -0.029269851744174957
-0.06877751648426056 0.020295122638344765 0.0628167986869812
-0.07758422195911407 0.008180179633200169 0.11216706037521362
0.004133283160626888 -0.056653864681720734 0.00826223660260439
0.06002525985240936 -0.07462383806705475 0.0048531293869018555
0.12140212953090668 -0.06440968811511993 0.041375599801540375
-0.0830787643790245 0.05449185520410538 0.1131163015961647
0.15333175659179688 -0.04315466061234474 0.01625916361808777
0.04494595155119896 -0.11524374037981033 0.35493767261505127
-0.1367025375366211 0.07786205410957336 0.41791874170303345
0.13373872637748718 -0.054937317967414856 0.04349308833479881
0.1161283403635025 -0.06276702880859375 0.09997528791427612
-0.07570604234933853 0.032253995537757874 0.07191376388072968
-0.05985603481531143 0.049944549798965454 -0.034415874630212784
0.0034898947924375534 -0.10364944487810135 0.3189857602119446
0.01106993481516838 0.048373445868492126 -0.5458020567893982
0.08730105310678482 -0.07070417702198029 -0.03724653273820877
0.08607412874698639 -0.0660865530371666 -0.03299722075462341
-0.11063799262046814 0.01666330173611641 -0.3023183345794678
-0.049616944044828415 -0.005435661878436804 -0.005016389302909374
0.00983547605574131 -0.11161310970783234 0.3606921434402466
0.015041934326291084 -0.1023041307926178 -0.10747058689594269
0.046901412308216095 -0.10330046713352203 0.22248749434947968
0.034431710839271545 -0.07303999364376068 -0.05076881870627403
0.11157737672328949 -0.05608385428786278 -0.001973068341612816
-0.04907242953777313 -0.02151065692305565 -0.12074750661849976
-0.016269540414214134 -0.050513532012701035 0.15120553970336914
0.10265856236219406 -0.11487843841314316 0.35404884815216064
0.045750074088573456 -0.06759048998355865 0.01086331345140934
-0.11036564409732819 0.10196664184331894 0.2497662901878357
0.05739666894078255 -0.06516715884208679 0.006607990711927414
-0.04898928478360176 0.0003207586705684662 -0.05797884613275528
-0.02177760750055313 -0.06860144436359406 -0.1413670927286148
0.03658193349838257 -0.08134232461452484 0.05928006395697594
-0.021588200703263283 -0.03795764222741127 0.04115553945302963
0.11567439138889313 -0.058716367930173874 0.0032763034105300903
0.05985114723443985 -0.11776065081357956 0.34055861830711365
0.09730400890111923 -0.09111309051513672 0.1608922928571701
0.0022942237555980682 -0.10463184863328934 -0.14030703902244568
0.10824157297611237 -0.054392874240875244 0.001127660390920937
-0.08104047179222107 0.046009648591279984 0.13352449238300323
0.020367596298456192 -0.08621839433908463 -0.023136598989367485
-0.037210509181022644 -0.07509160786867142 -0.1931656450033188
-0.06369538605213165 0.010465948842465878 -0.11394783109426498
-0.07987915724515915 0.0198507159948349 0.11553222686052322
-0.03993002697825432 0.12980180978775024 0.05982229858636856
0.11440679430961609 -0.060717761516571045 0.003620241768658161
0.030960433185100555 -0.08610761165618896 -0.027985692024230957
0.04508129507303238 -0.08098450303077698 -0.09704133123159409
0.0517524778842926 -0.07988646626472473 0.12101803719997406
-0.07457815110683441 0.01832026056945324 -0.12455828487873077
-0.07246658205986023 0.08317206054925919 0.07811098545789719
0.11518414318561554 -0.05646566301584244 0.0013219835236668587
-0.024724384769797325 -0.03830963000655174 0.12028670310974121
-0.0941883772611618 -0.013103678822517395 0.2355116307735443
-0.0007004030048847198 -0.10269781947135925 -0.1733657270669937
-0.040954701602458954 -0.018760869279503822 -0.03460581973195076
-0.07441931962966919 0.05589266121387482 -0.1953372359275818
-0.06542129069566727 0.17770853638648987 0.4222046732902527
0.03412996977567673 -0.07204825431108475 -0.04507393389940262
0.17831763625144958 -0.06276795268058777 0.2152489423751831
-0.05047709867358208 -0.01938118413090706 0.08275828510522842
0.043986402451992035 -0.12789972126483917 0.34061136841773987
-0.07794453203678131 0.02119128778576851 0.09135892987251282
0.09981238842010498 -0.10011622309684753 0.22154520452022552
0.04273898899555206 -0.06550021469593048 0.06137600541114807
0.12387973815202713 -0.04137944430112839 -0.025922244414687157
0.01276600081473589 -0.09496168792247772 -0.15553733706474304
-0.06243423372507095 0.015203623101115227 0.004663157742470503
-0.0332871675491333 0.07123159617185593 -0.4060285985469818
-0.027267811819911003 -0.02848292514681816 0.06862381100654602
0.1555362492799759 -0.010554220527410507 -0.10200890898704529
0.09885698556900024 -0.0767756849527359 -0.1305375099182129
-0.07291866838932037 0.06064777448773384 0.05644834786653519
-0.016000907868146896 -0.04944789782166481 -0.01376289315521717
0.012466603890061378 -0.06983046978712082 0.11407629400491714
0.027007408440113068 -0.07535693049430847 -0.03844151645898819
-0.01982678286731243 0.12814602255821228 -0.09246546030044556
-0.08340094983577728 0.11195068061351776 0.18470166623592377
0.17109420895576477 -0.0667707696557045 -0.304145485162735
0.09113463014364243 -0.09638921916484833 0.1648443043231964
-0.07114621996879578 0.049477048218250275 0.03125692903995514
-0.0713200718164444 0.044920168817043304 0.034807924181222916
-0.034643467515707016 -0.022347502410411835 -0.02963830716907978
0.08305150270462036 -0.09107447415590286 -0.13588610291481018
-0.057403918355703354 0.037730202078819275 -0.08514639735221863
0.030780456960201263 -0.07084265351295471 -0.03855246305465698
-0.07412436604499817 0.04385655000805855 0.03227291628718376
-0.06313198804855347 0.030560072511434555 -0.000515596941113472
-0.013999611139297485 -0.032518170773983 -0.05513928085565567
0.022379562258720398 -0.0749509260058403 -0.02769443951547146
-0.03837756812572479 -4.59086149930954e-05 -0.05617865175008774
-0.06648939102888107 0.019661065191030502 -0.3706855773925781
0.062274619936943054 -0.06989017874002457 -0.0007004830986261368
-0.03476998209953308 -0.07331526279449463 0.24319998919963837
0.038295991718769073 -0.07692139595746994 0.0971222072839737
-0.02651400864124298 0.12136173248291016 -0.03397411108016968
0.11064144968986511 -0.05773412436246872 0.0035800598561763763
-0.07113545387983322 0.014370432123541832 0.08282403647899628
0.11751654744148254 -0.04244966059923172 -0.024411505088210106
-0.05688468739390373 -0.00609117466956377 0.08016793429851532
0.17212475836277008 -0.052047863602638245 0.15148214995861053
0.01793963462114334 -0.08273714780807495 -0.023650838062167168
-0.04699040204286575 -0.0008329097181558609 -0.06133485212922096
-0.07568170875310898 0.061652377247810364 -0.13329026103019714
-0.0015308577567338943 -0.0822397917509079 0.21649900078773499
-0.06717624515295029 0.012508219107985497 0.04860523343086243
-0.026660701259970665 0.1441168189048767 0.08786580711603165
0.12288135290145874 -0.0387776754796505 0.013702350668609142
0.18084946274757385 -0.07752762734889984 0.3055998682975769
-0.0440029501914978 -0.01732712984085083 0.08224879950284958
0.08780056983232498 -0.062492940574884415 -0.026540307328104973
0.0302652008831501 -0.07641477882862091 0.12455598264932632
-0.10976578295230865 0.0567820705473423 0.23941752314567566
-0.05211149901151657 0.01207752712070942 0.0026448462158441544
0.1183742880821228 -0.056705325841903687 0.0020232219249010086
0.16139939427375793 -0.09108254313468933 0.3310537040233612
-0.051987264305353165 -0.004595224745571613 -0.04993494600057602
-0.0505455806851387 0.1819068193435669 0.30914226174354553
-0.07660582661628723 0.049433451145887375 0.028513148427009583
0.02900838851928711 -0.09947895258665085 0.2192760854959488
0.08454637974500656 -0.11600308865308762 0.33079054951667786
0.023466506972908974 -0.08236348628997803 -0.022077711299061775
-0.08698835223913193 0.04634825140237808 0.1597011387348175
0.0052997455932199955 -0.054045047610998154 0.013800257816910744
-0.02568046748638153 -0.034274425357580185 0.08052536100149155
0.11831989139318466 -0.05689670145511627 0.012491912581026554
0.04786165431141853 -0.0744742751121521 0.10097137838602066
-0.10419964790344238 0.029529016464948654 0.22202305495738983
-0.0405520498752594 0.11540035903453827 -0.07875801622867584
0.1118595153093338 -0.047249265015125275 -0.04957355931401253
-0.0848558098077774 -0.02330268919467926 0.22852064669132233
-0.04183446988463402 -0.013580639846622944 -0.37870755791664124
0.10904116928577423 -0.05793644115328789 0.005566652864217758
-0.05687525123357773 -0.014094490557909012 0.0776401236653328
0.08492528647184372 -0.06822066009044647 -0.020157774910330772
-0.06986307352781296 0.004812824539840221 0.09499242901802063
-0.09681954234838486 0.12232135236263275 0.24697810411453247
0.036989156156778336 -0.06708572804927826 0.05823361873626709
-0.10381150990724564 0.06728749722242355 -0.2669171988964081
-0.05433948338031769 0.10928741097450256 0.00825767032802105
0.0500778928399086 -0.06973635405302048 -0.006103473249822855
0.04234043508768082 -0.07718398422002792 0.07434391230344772
0.013703200034797192 -0.10443863272666931 -0.2855975031852722
-0.06042499467730522 0.010951004922389984 -0.0017544999718666077
0.02714047208428383 -0.10729572176933289 -0.1181541308760643
-0.05313212051987648 0.1622210294008255 0.23038813471794128
-0.0545232892036438 -0.010742571204900742 -0.0067168003879487514
0.08643662929534912 -0.09358872473239899 -0.13462498784065247
-0.08484189957380295 0.03976307809352875 0.11784970760345459
0.14097467064857483 -0.07909766584634781 -0.19792991876602173
0.11915111541748047 -0.10458242893218994 -0.3077181875705719
-0.10420741140842438 -0.012112422846257687 0.22927893698215485
-0.039856307208538055 -0.01816796325147152 -0.030240099877119064
-0.06572751700878143 0.01780807599425316 0.04030197113752365
-0.034102004021406174 -0.040295347571372986 0.06238876283168793
0.04370180517435074 -0.07063906639814377 0.05962033569812775
-0.05294160544872284 0.09352850914001465 0.07802848517894745
-0.07598832249641418 0.035877034068107605 0.12010884284973145
-0.044002264738082886 0.08342745155096054 -0.05100394785404205
0.11561310291290283 -0.06274255365133286 0.0015785228461027145
-0.04720750078558922 -0.0505007803440094 -0.18041028082370758
0.11330826580524445 -0.10719242691993713 0.23305700719356537
-0.08661980926990509 0.06967193633317947 -0.21033242344856262
0.018321461975574493 -0.08009034395217896 -0.02366902306675911
-0.01989618130028248 -0.0641285702586174 0.14543181657791138
0.04181844741106033 -0.08451199531555176 0.11803149431943893
-0.06894725561141968 0.02190382406115532 0.06336362659931183
-0.07783196121454239 0.0856088250875473 -0.34862402081489563
-0.05079669505357742 0.10636506229639053 -0.11020790785551071
0.08684072643518448 -0.07233202457427979 -0.029482942074537277
-0.06038741022348404 0.12140505760908127 -0.22097384929656982
0.11445098370313644 -0.039965372532606125 -0.0015897757839411497
-0.057114940136671066 -0.023024965077638626 0.16880565881729126
-0.07041828334331512 0.09131918847560883 0.132784903049469
-0.05530219525098801 0.1321299970149994 0.16902877390384674
-0.08181478828191757 0.14779531955718994 0.24763505160808563
-0.054505929350852966 0.04102258011698723 -0.0023884058464318514
0.07981173694133759 -0.06723427772521973 -0.032306015491485596
-0.07744867354631424 0.018817676231265068 0.04405283182859421
0.11195870488882065 -0.054343707859516144 0.001845089253038168
0.019304770976305008 -0.09092593193054199 -0.12821944057941437
0.0848580002784729 -0.06013752147555351 -0.015649273991584778
-0.053824201226234436 0.05447478964924812 -0.05877097696065903
-0.04865478724241257 -0.014382831752300262 0.08428822457790375
-0.00896509550511837 -0.06341607123613358 0.021351344883441925
-0.08872199058532715 0.04842863976955414 0.15105687081813812
-0.06798987090587616 0.021564779803156853 0.024983396753668785
-0.12325733155012131 0.05939507111907005 0.27864518761634827
-0.07325196266174316 0.012906503863632679 0.03661412000656128
-0.05857337638735771 0.013526493683457375 0.0022861678153276443
-0.01825663261115551 -0.038942962884902954 0.046552591025829315
0.03005666844546795 -0.0731920599937439 -0.038880567997694016
0.12222186475992203 -0.055233217775821686 0.003912287764251232
-0.06626635789871216 0.02721795067191124 -0.0524473711848259
0.12001186609268188 -0.05615636706352234 0.014740491285920143
-0.05581730976700783 -0.025658009573817253 -0.1272260844707489
0.08385636657476425 -0.0622146800160408 -0.025876959785819054
-0.08480643481016159 0.02058272436261177 -0.20926839113235474
-0.03428162634372711 -0.005801726132631302 -0.05361185222864151
-0.048985499888658524 0.03731568902730942 -0.055340640246868134
0.17025449872016907 -0.10008129477500916 0.39375028014183044
-0.05343746766448021 -0.004773715045303106 -0.05785705894231796
0.006931190378963947 -0.11801663041114807 -0.17877089977264404
0.06246209889650345 -0.0670611560344696 0.004397551529109478
-0.06476229429244995 0.034895606338977814 -0.0026306589134037495
0.042140040546655655 -0.06365913897752762 0.051198676228523254
-0.08013416826725006 -0.03084402158856392 -0.2554819583892822
-0.07859587669372559 0.0024883653968572617 -0.15912266075611115
0.028175240382552147 -0.09624804556369781 0.22055339813232422
-0.0693904310464859 0.010951017029583454 0.05018431320786476
-0.06439128518104553 -0.05333435535430908 -0.19936366379261017
-0.017807794734835625 -0.0895739495754242 -0.2101808786392212
-0.0523143969476223 -0.002159446943551302 -0.05312299728393555
-0.041842665523290634 0.10455892980098724 -0.02076297253370285
0.05732870474457741 -0.10686486959457397 -0.1556008905172348
-0.0900224968791008 0.032278720289468765 0.14285682141780853
0.05697480961680412 -0.06979334354400635 0.003445971757173538
-0.00014223577454686165 -0.06341420859098434 0.010612573474645615
-0.08369095623493195 0.03176470100879669 0.17429231107234955
0.1080925315618515 -0.05416712537407875 0.001807061955332756
-0.07169999182224274 0.043960392475128174 0.030025823041796684
0.018928371369838715 -0.08422213792800903 -0.026609793305397034
0.0349777489900589 -0.0923999771475792 -0.10913554579019547
-0.06588444113731384 0.036238618195056915 0.026636794209480286
-0.08687026053667068 0.0839364156126976 0.17145463824272156
-0.11777964234352112 -0.007232513278722763 0.34224262833595276
-0.057677119970321655 0.010141843929886818 0.0025063592474907637
0.10956013947725296 -0.05688535422086716 0.00763863418251276
0.10570279508829117 -0.011255785822868347 -0.43749120831489563
0.08592063188552856 -0.0755813717842102 -0.028094332665205002
0.028672395274043083 -0.077379509806633 -0.030266985297203064
0.011690517887473106 -0.09390785545110703 0.21967993676662445
0.09733108431100845 -0.08420948684215546 -0.12245942652225494
0.12299253046512604 -0.05273161455988884 0.0013874946162104607
0.06747395545244217 -0.10606778413057327 -0.13490678369998932
0.1249680370092392 -0.038738153874874115 0.017452064901590347
-0.07080988585948944 0.05426858738064766 0.05599435791373253
-0.015317779034376144 -0.04310107231140137 -0.05702921003103256
-0.029252558946609497 -0.1055285781621933 0.4368327558040619
0.032380297780036926 -0.07345887273550034 -0.035535670816898346
-0.07052098214626312 0.038635894656181335 0.02668156288564205
0.03073885105550289 -0.08007264137268066 -0.3386862874031067
0.10867459326982498 -0.05515742674469948 0.0037712031044065952
-0.0597897544503212 0.0018550446256995201 -0.05014990270137787
0.07003560662269592 -0.075429268181324 -0.40611547231674194
0.08214006572961807 -0.08795837312936783 -0.14539317786693573
-0.1290459930896759 0.04104610159993172 0.4220600724220276
-0.047148317098617554 -0.00940098986029625 0.08454428613185883
-0.07134715467691422 0.013701751828193665 0.12430378049612045
0.005328587256371975 -0.12914469838142395 -0.2783827781677246
-0.007820132188498974 -0.05584723874926567 0.012801388278603554
0.04658682644367218 -0.07391765713691711 0.06149668991565704
-0.06536306440830231 0.03214910998940468 0.04204517602920532
0.05957822874188423 -0.06552499532699585 0.005740328226238489
-0.06828702986240387 0.04027070477604866 0.049607302993535995
0.08638109266757965 -0.06651106476783752 -0.026243217289447784
-0.12857839465141296 0.0449313186109066 0.319002628326416
0.05608787015080452 -0.06911592930555344 -0.0004543293034657836
-0.06822121143341064 -0.009659095667302608 0.07799528539180756
0.060383040457963943 -0.11545474082231522 0.3423728048801422
0.0005523739382624626 -0.07342113554477692 0.14906202256679535
-0.02493802271783352 -0.030151432380080223 -0.014723584987223148
-0.06768372654914856 0.05340319499373436 0.03367043286561966
0.11319859325885773 -0.05537647008895874 0.0015659453347325325
-0.05344786494970322 -0.008894185535609722 -0.05688289552927017
0.0919748842716217 -0.07175362855195999 -0.055847909301519394
0.17854861915111542 -0.03520939499139786 0.1828257292509079
0.03203427046537399 -0.07638797909021378 0.10411456972360611
-0.060989730060100555 0.12172980606555939 -0.32300060987472534
0.057140544056892395 -0.10102137923240662 -0.14174221456050873
-0.06399554014205933 0.04101201891899109 0.029943104833364487
0.005508599802851677 -0.10148431360721588 -0.1712041050195694
-0.07905959337949753 0.04536861926317215 -0.2867777943611145
0.14828841388225555 -0.062122032046318054 -0.3570544719696045
-0.06307665258646011 0.036766935139894485 0.027881750836968422
-0.018765181303024292 -0.04025962948799133 -0.010970421135425568
-0.12609870731830597 0.05689004063606262 0.3946284055709839
-0.08943323791027069 0.07627115398645401 0.14149484038352966
0.008439810015261173 -0.11723320931196213 -0.17361925542354584
-0.12012878805398941 0.025434274226427078 0.26795467734336853
-0.06433115899562836 0.04656030237674713 0.034385789185762405
-0.07389803230762482 0.036786891520023346 -0.10524770617485046
-0.03486495837569237 0.126972958445549 0.06882593035697937
-0.006418436765670776 0.13337655365467072 -0.015523245558142662
-0.06685519218444824 0.04108545929193497 -0.11357361823320389
0.05852963775396347 -0.08030548691749573 0.12953224778175354
0.030101165175437927 -0.0772184431552887 -0.022396791726350784
-0.0917230099439621 0.04705997556447983 -0.2261127084493637
0.023004082962870598 -0.08653389662504196 -0.029301058501005173
-0.07372020184993744 0.05725941061973572 -0.19983327388763428
0.03419354557991028 -0.0700950026512146 0.047400571405887604
-0.09154924750328064 0.07131601870059967 0.10659986734390259
0.14864744246006012 -0.027488403022289276 0.023288821801543236
-0.053081925958395004 -0.0053879315964877605 -0.06477148085832596
-0.06411991268396378 0.0007219798862934113 0.05647837370634079
-0.03972964361310005 -0.03851625323295593 0.0793360024690628
-0.08024267107248306 0.05823028087615967 -0.11905911564826965
-0.0525197759270668 -0.019416645169258118 0.08522933721542358
0.10989680886268616 -0.05732268840074539 0.002426842227578163
-0.07757318019866943 0.049473270773887634 0.03407313674688339
0.041417885571718216 -0.09163539111614227 -0.09825277328491211
-0.023946207016706467 -0.03555375710129738 -0.03479636833071709
0.006830121856182814 -0.08079476654529572 0.18862703442573547
-0.04923846572637558 -0.06323637068271637 0.22770288586616516
-0.06134229153394699 0.01838996447622776 0.005811410956084728
-0.06566125154495239 0.07169495522975922 -0.013816099613904953
0.07143942266702652 -0.07388711720705032 -0.026108384132385254
-0.056347139179706573 -0.0015056408010423183 -0.055700041353702545
-0.05276725813746452 0.0679503008723259 -0.06113216653466225
0.1395460069179535 -0.02231074497103691 -0.017799701541662216
-0.04428878426551819 0.005431513302028179 -0.054319486021995544
-0.11145470291376114 -0.014565683901309967 0.31418105959892273
-0.05261059105396271 -0.0006979770842008293 -0.058718763291835785
-0.035730261355638504 0.10571284592151642 0.008087724447250366
-0.04469342902302742 0.0038880975916981697 -0.05588109418749809
-0.06488379836082458 0.008172325789928436 -0.10416900366544724
-0.049085456877946854 0.06519574671983719 -0.007257573306560516
0.04066237434744835 -0.078085757791996 0.12186914682388306
0.12321776151657104 -0.05212320387363434 0.013239404186606407
0.12161023169755936 -0.04765509068965912 0.018577462062239647
0.09569300711154938 -0.07821762561798096 -0.11345081031322479
0.06902959942817688 -0.0003194105811417103 -0.5625596046447754
-0.06883716583251953 0.01363154873251915 0.05722939595580101
-0.06892434507608414 0.011905976571142673 0.0062516313046216965
-0.11335235834121704 0.049518898129463196 0.26295754313468933
0.12245596945285797 -0.04088756442070007 0.016647543758153915
-0.05266470089554787 -0.041885826736688614 -0.15644223988056183
0.02743452787399292 -0.10143144428730011 -0.11636176705360413
-0.02774977684020996 -0.023640956729650497 -0.02600630559027195
0.06256012618541718 -0.07190527021884918 0.008263645693659782
0.0024099573493003845 -0.04937336966395378 -0.00449914438650012
-0.021793130785226822 -0.034572213888168335 -0.09511517733335495
-0.06498117744922638 0.039949800819158554 0.04060496762394905
0.11764971911907196 -0.10927354544401169 -0.2782674729824066
0.0953439474105835 -0.09369699656963348 -0.12191101908683777
-0.07038414478302002 0.09394769370555878 -0.20032477378845215
-0.0353681817650795 0.17715156078338623 0.26087623834609985
0.0024004578590393066 -0.10343604534864426 -0.29254084825515747
-0.06528922915458679 0.0032886266708374023 0.14601080119609833
0.03613826632499695 -0.07510997354984283 -0.03273344039916992
0.0021226471289992332 -0.050093166530132294 -0.0578451044857502
0.12401781231164932 -0.057211246341466904 0.015486052259802818
-0.052462123334407806 0.06095948815345764 -0.06734250485897064
-0.10816791653633118 0.01372484304010868 -0.2497652769088745
-0.05950096249580383 0.18499866127967834 0.3709159195423126
-0.004260608926415443 0.010075060650706291 -0.42300093173980713
0.19316300749778748 -0.03142779693007469 0.2020893096923828
-0.01094762235879898 -0.040329910814762115 -0.016067875549197197
-0.046157415956258774 -0.07375214248895645 -0.34541186690330505
0.020825203508138657 -0.07920801639556885 -0.027371345087885857
0.11766019463539124 -0.06829015910625458 -0.1420387476682663
0.02910383604466915 -0.09512095153331757 -0.12406191974878311
-0.07261229306459427 0.05280879884958267 0.03960898518562317
0.11721090227365494 -0.060780107975006104 -6.998330354690552e-05
0.02588113211095333 -0.0920737087726593 -0.020253626629710197
-0.06289692223072052 0.06461605429649353 -0.12813176214694977
-0.06977576017379761 -0.014620560221374035 -0.15500009059906006
0.08689215034246445 -0.05758577585220337 -0.02953876554965973
0.12962649762630463 -0.052742768079042435 0.02382858470082283
0.05112951993942261 -0.07051664590835571 -0.0003334861248731613
-0.09461317956447601 0.01635284721851349 -0.243395134806633
-0.06078631430864334 0.13402487337589264 -0.2700278162956238
0.006605531554669142 -0.10077328979969025 -0.1535118669271469
0.02859138511121273 -0.10247756540775299 0.21946939826011658
-0.07732763141393661 0.006068220362067223 0.10723038762807846
-0.0750478133559227 0.051831044256687164 0.02808610163629055
-0.05263155326247215 0.053448911756277084 -0.040329061448574066
0.1270224004983902 -0.05578383803367615 0.01482200063765049
0.05450067296624184 -0.07163217663764954 0.050116512924432755
-0.037341952323913574 -0.07480320334434509 0.24522849917411804
-0.1055474579334259 0.018686994910240173 0.2257239669561386
-0.05069221928715706 0.01885945163667202 -0.007919855415821075
-0.04995700716972351 -0.005148306488990784 -0.05323634296655655
-0.0673936977982521 0.016582995653152466 0.05119819566607475
-0.07593714445829391 0.15605026483535767 0.2865835726261139
-0.06767527014017105 0.04564368352293968 0.033133141696453094
0.11737167835235596 -0.059755098074674606 0.001747333211824298
-0.06318466365337372 0.0034820588771253824 0.03957182541489601
-0.02824670448899269 -0.10092372447252274 0.3635097146034241
-0.08032883703708649 0.01697019301354885 -0.18985436856746674
-0.06607981026172638 0.05208795517683029 -0.015626778826117516
-0.00344664603471756 -0.07430682331323624 0.12709759175777435
-0.10426375269889832 0.14643216133117676 0.3545551300048828
-0.024167614057660103 -0.03266441822052002 -0.024201730266213417
-0.04196501150727272 -0.025014694780111313 -0.03364197537302971
-0.07375624775886536 0.07232934236526489 0.09834316372871399
-0.004319485742598772 -0.08259609341621399 0.18820838630199432
0.042894359678030014 -0.07583141326904297 -0.045724522322416306
-0.02089514397084713 -0.09569869190454483 0.3092242479324341
0.21513745188713074 -0.04498058930039406 0.3649720251560211
-0.05602302402257919 -0.02620198205113411 0.17128446698188782
-0.01680946908891201 -0.061486873775720596 0.1367112398147583
-0.00545366108417511 -0.06646550446748734 0.023451227694749832
-0.06225256621837616 0.00989539921283722 0.002832988277077675
-0.04662282019853592 -0.0187087282538414 0.0836808830499649
0.011497602798044682 -0.1021326333284378 -0.1517764925956726
0.10893457382917404 -0.05665171146392822 -0.0008278824388980865
0.11087975651025772 -0.05059826374053955 0.00351816788315773
0.11093120276927948 -0.05595371499657631 0.005757125094532967
-0.051790039986371994 -0.003974635154008865 -0.05918712913990021
0.021606698632240295 -0.07959603518247604 -0.03110017068684101
0.030668111518025398 -0.08195750415325165 0.11743774265050888
0.026694096624851227 -0.08147156983613968 -0.020544569939374924
0.05977329611778259 -0.07345718145370483 0.007129315286874771
0.13244852423667908 -0.05085024982690811 0.023812374100089073
0.1125870868563652 -0.06469396501779556 0.10777099430561066
0.09160041809082031 -0.08757857978343964 -0.13005928695201874
0.10267018526792526 -0.07882530987262726 -0.11761166155338287
-0.08761385828256607 0.03291437029838562 0.11690494418144226
-0.0663783922791481 0.04864530265331268 0.02836364507675171
-0.04321789741516113 -0.02164587564766407 -0.04140855744481087
0.11017942428588867 -0.0689970850944519 -0.09933558106422424
-0.10500159114599228 0.04094304144382477 0.2214936912059784
0.11442511528730392 -0.059293266385793686 0.008686203509569168
0.06678875535726547 -0.09701234102249146 -0.17019104957580566
-0.05766861513257027 0.0825403556227684 0.03012365661561489
0.12159353494644165 -0.06040053814649582 0.03687705099582672
0.05926206707954407 -0.07305910438299179 0.00464705191552639
0.11545470356941223 -0.05355682596564293 0.007727287709712982
-0.05848929286003113 0.03300353139638901 -0.05380253121256828
0.029365206137299538 -0.025249896571040154 -0.4410203993320465
-0.06586761772632599 0.02564140409231186 0.0334329716861248
-0.0320977084338665 -0.022556189447641373 -0.025900140404701233
-0.0561944842338562 0.021513260900974274 -0.018915345892310143
-0.07655161619186401 0.0187786053866148 0.09411267191171646
0.0462256520986557 -0.08431442826986313 0.1208065003156662
-0.0983431413769722 -0.02560374140739441 0.3582758903503418
0.09475333988666534 -0.06292226165533066 -0.029403630644083023
0.09625470638275146 -0.11115312576293945 0.3306161165237427
-0.05186852812767029 0.08275947719812393 -0.09171523153781891
0.019493557512760162 -0.08320172131061554 -0.02761266753077507
0.04681943356990814 -0.07045117020606995 0.005395048297941685
-0.03206641599535942 -0.04547612741589546 -0.38338804244995117
0.1554907262325287 -0.05503251403570175 0.1584780067205429
0.11966956406831741 -0.054994191974401474 0.00903355609625578
-0.06164693832397461 0.09559759497642517 0.0723876953125
-0.05022739619016647 0.14432528614997864 -0.23492181301116943
0.03146852180361748 -0.09876289963722229 0.2286980003118515
0.027117472141981125 -0.07932484894990921 -0.032968129962682724
-0.02621481567621231 -0.02724694460630417 0.06986478716135025
-0.04811035096645355 0.004943094216287136 -0.05586494505405426
0.13341248035430908 -0.033857665956020355 -0.04486621543765068
-0.054068490862846375 0.046980876475572586 -0.01396772637963295
0.002489517442882061 -0.08560121059417725 0.21500220894813538
-0.0025965599343180656 -0.0639958381652832 0.014735433273017406
-0.07307016849517822 0.04923282936215401 0.03549119085073471
-0.037949107587337494 -0.04348168149590492 -0.1739838719367981
0.024500472471117973 -0.08387694507837296 -0.02505289763212204
-0.06590226292610168 0.04864072427153587 -0.046526022255420685
0.032525405287742615 -0.09623738378286362 -0.11787518858909607
-0.08456120640039444 0.021237753331661224 0.14306017756462097
-0.02818029187619686 -0.08586917817592621 -0.21094784140586853
0.009772004559636116 -0.10728563368320465 -0.12108407914638519
0.12330582737922668 -0.10818440467119217 0.36936089396476746
-0.0671202540397644 0.01986703649163246 0.1107882708311081
-0.07957038283348083 -0.027561742812395096 -0.21365036070346832
0.04820261523127556 -0.07655104994773865 0.05925629287958145
-0.06510744243860245 0.0327112190425396 0.005914999172091484
0.04844044893980026 -0.11401732265949249 0.21798360347747803
-0.0009144414216279984 -0.05392996221780777 0.028541307896375656
-0.04935164749622345 0.009375818073749542 0.0008044717833399773
-0.12908445298671722 0.06789596378803253 0.3429400622844696
-0.07182948291301727 0.05902567505836487 -0.1295824646949768
0.1388845294713974 -0.007423736155033112 -0.03227042779326439
-0.08928702771663666 0.16605016589164734 0.38691309094429016
-0.10384546965360641 -0.008015982806682587 0.27252131700515747
0.10035790503025055 -0.08564551174640656 0.17005673050880432
0.10973779112100601 -0.05346861854195595 0.0020242712926119566
-0.010494811460375786 -0.04447302967309952 -0.056754861027002335
-0.06317266821861267 0.020580261945724487 0.052552368491888046
-0.08383175730705261 0.026737350970506668 0.1294756531715393
0.06086230278015137 -0.11432264745235443 0.4231386184692383
-0.11611326038837433 0.11678823828697205 0.34776949882507324
-0.07161355018615723 0.02865280956029892 -0.11147771775722504
-0.07280457019805908 0.050224997103214264 0.03471606597304344
0.11557866632938385 -0.06888915598392487 0.1014983206987381
-0.05091753229498863 0.03682935610413551 -0.05319249629974365
-0.015642782673239708 -0.036172717809677124 -0.02183779701590538
-0.11141843348741531 0.019449299201369286 0.24405260384082794
-0.06952726095914841 0.023111887276172638 0.03566315770149231
-0.06292425096035004 0.01491420529782772 0.004623309709131718
0.08340448141098022 -0.09190906584262848 -0.1382487714290619
-0.06060975044965744 0.04748047888278961 -0.04821862652897835
-0.10857131332159042 0.02942340075969696 0.23023919761180878
-0.025305598974227905 -0.0725623369216919 -0.14671814441680908
-0.0618620365858078 0.0013368399813771248 0.039637044072151184
0.0964372530579567 -0.12422344833612442 0.28196555376052856
-0.023211557418107986 -0.029832331463694572 0.07535826414823532
-0.049360714852809906 -0.050063781440258026 -0.15722763538360596
0.001133287325501442 -0.056712593883275986 0.022328754886984825
-0.05511101335287094 0.07826024293899536 0.03059452772140503
0.12077967077493668 -0.04520395025610924 -0.042277634143829346
-0.0756041556596756 0.040097229182720184 0.08646374940872192
-0.04027427360415459 -0.012087874114513397 -0.024491801857948303
-0.08307700604200363 0.017795447260141373 -0.20384187996387482
-0.09564092755317688 0.04327425733208656 0.17683663964271545
-0.05165356397628784 -0.00401188712567091 0.0912485271692276
-0.06111196428537369 0.04430767521262169 -0.07700086385011673
0.11301425844430923 -0.056446075439453125 0.001988993026316166
-0.045175887644290924 -0.006066072732210159 -0.05713801458477974
-0.022116361185908318 -0.04793470352888107 0.04138917103409767
-0.06428578495979309 0.056027770042419434 -0.042760372161865234
-0.07380912452936172 0.048228923231363297 0.029529215767979622
0.11105850338935852 -0.05882640928030014 0.00674406997859478
-0.060047175735235214 0.04495689272880554 -0.0009932927787303925
-0.06200888007879257 0.059624236077070236 -0.09640142321586609
0.04917045682668686 -0.06953540444374084 0.004881151486188173
-0.07779347896575928 0.10747173428535461 0.16263028979301453
0.07008251547813416 -0.08312887698411942 0.1755390465259552
0.10993169248104095 -0.05472709238529205 0.0026319175958633423
-0.02144571766257286 -0.03823191672563553 -0.05002228543162346
0.09562467038631439 -0.0719640702009201 -0.033814407885074615
-0.10051529854536057 0.05140793323516846 0.17734885215759277
-0.10019427537918091 0.10076606273651123 0.20596100389957428
0.1184028908610344 -0.054614804685115814 0.00010088691487908363
-0.09775040298700333 0.013080283999443054 0.1874331831932068
-0.029267016798257828 -0.031028879806399345 0.06999107450246811
0.11553548276424408 -0.054346371442079544 0.010988360270857811
0.08666262030601501 -0.06674396991729736 -0.024502813816070557
0.11840257048606873 -0.0780443400144577 -0.14606042206287384
-0.05176669359207153 0.11256659030914307 0.08884304016828537
-0.060328688472509384 0.014368908479809761 0.00540497712790966
-0.06808587908744812 0.017571132630109787 -0.11368591338396072
0.09137789905071259 -0.07007644325494766 -0.03053401969373226
0.11410033702850342 -0.06800252199172974 0.11519109457731247
0.026918206363916397 -0.09755069017410278 -0.12158466130495071
0.1089147999882698 -0.055539570748806 -0.004649965092539787
-0.05211079493165016 0.11009740084409714 -0.1599227637052536
0.11801503598690033 -0.04485972970724106 0.0021137483417987823
0.11661939322948456 -0.055590610951185226 -0.005955294705927372
-0.03776194155216217 0.11050239205360413 -0.10144777595996857
-0.08168686926364899 0.16731567680835724 0.3252357542514801
-0.07466361671686172 -0.013749953359365463 0.1433010697364807
-0.08572732657194138 0.06115758791565895 0.11715120077133179
0.053891971707344055 -0.06924241036176682 0.016522753983736038
0.031206831336021423 -0.08245694637298584 -0.03380441665649414
-0.03507627919316292 -0.01901869662106037 0.07578440010547638
-0.0654703751206398 0.03079826757311821 0.008678771555423737
-0.06193091720342636 -0.00799446552991867 -0.05710161104798317
-0.03329060226678848 -0.0533272810280323 -0.16384261846542358
-0.05040287598967552 -0.0058409771881997585 -0.06206224113702774
-0.022679811343550682 -0.025259152054786682 0.015455389395356178
-0.07757076621055603 0.000789867714047432 0.03737698122859001
0.007052483968436718 -0.06650741398334503 0.12274855375289917
0.12315647304058075 -0.05046051740646362 0.014528030529618263
0.03428523242473602 -0.08990737795829773 -0.2730487287044525
-0.05456577241420746 0.0848558247089386 0.07404685765504837
-0.08745021373033524 0.031194539740681648 0.1516888290643692
0.15969201922416687 -0.02111131325364113 0.07795412093400955
-0.04330024495720863 -0.007304498925805092 0.08014653623104095
-0.07427188754081726 0.0500473827123642 0.03177732974290848
-0.07029996812343597 0.11006247252225876 -0.13268059492111206
-0.05677023530006409 0.00944167748093605 0.007789846509695053
0.12899406254291534 -0.10438854992389679 0.2587244212627411
0.005486202426254749 -0.0789126455783844 0.18926486372947693
0.054403841495513916 -0.06593763083219528 0.055876366794109344
0.02425590716302395 -0.07926463335752487 -0.017587509006261826
-0.022586671635508537 -0.04838532954454422 -0.10443393886089325
-0.06430359184741974 0.08954977989196777 0.08223316073417664
-0.015922604128718376 -0.024546857923269272 -0.32183149456977844
0.10333073884248734 -0.0768771842122078 0.13114677369594574
0.08195807784795761 -0.11777503043413162 -0.22012600302696228
-0.09126285463571548 0.07173461467027664 -0.3142281174659729
0.12469913810491562 -0.10315267741680145 0.24108685553073883
-0.11281462013721466 0.06818009167909622 0.26326897740364075
-0.058774590492248535 0.028477583080530167 0.06066570058465004
-0.08748729526996613 0.08306386321783066 0.1484142243862152
0.03367185220122337 -0.0790787786245346 0.0531177818775177
0.1186654269695282 -0.08362221717834473 -0.1406983584165573
-0.04508412629365921 0.12817606329917908 0.14480629563331604
0.02244759537279606 -0.08351577073335648 -0.0266876220703125
-0.0684744268655777 0.01942474953830242 0.05181174725294113
-0.07896377146244049 0.014523142017424107 -0.13116778433322906
-0.02390144392848015 0.13337740302085876 0.002888258546590805
-0.02445279434323311 -0.029661666601896286 0.06455713510513306
-0.05073629692196846 -0.017363127321004868 0.08960486203432083
-0.016561433672904968 -0.036457959562540054 -0.011302734725177288
0.025024911388754845 0.051602862775325775 -0.44253575801849365
-0.08392486721277237 0.03185879811644554 0.1428692489862442
-0.04645908623933792 0.1484750360250473 -0.28792572021484375
0.10778109729290009 -0.07073508203029633 0.09760010242462158
-0.04247327148914337 -0.004417406395077705 -0.05556657537817955
-0.017999282106757164 -0.0371830090880394 -0.012052115984261036
-0.04382925108075142 -0.03824550658464432 -0.11677604913711548
-0.08466733992099762 -0.020434042438864708 -0.30131909251213074
-0.059518612921237946 0.1304156482219696 0.18283648788928986
0.019035523757338524 -0.08362635225057602 -0.028578313067555428
-0.0514887273311615 0.15283620357513428 0.19212695956230164
-0.03413022309541702 0.13823360204696655 -0.14225861430168152
-0.08459511399269104 -0.053832314908504486 0.4032582938671112
-0.05778110772371292 0.0486312173306942 -0.01786218397319317
-0.06732280552387238 0.013736222870647907 -0.0011116983368992805
-0.04723621532320976 -0.005636841058731079 -0.05439169704914093
-0.0725376158952713 0.015466163866221905 0.06315041333436966
0.05170092359185219 -0.11570734530687332 0.22272300720214844
-0.06314975023269653 0.009017258882522583 0.0425647497177124
-0.05807025358080864 0.09127717465162277 -0.09977863729000092
-0.046437520533800125 0.1269925832748413 0.11949238926172256
0.1133202612400055 -0.05476630479097366 -0.00027650780975818634
0.020539918914437294 -0.08337974548339844 -0.022009652107954025
-0.06071868911385536 0.0719168558716774 0.017862852662801743
-0.06760755181312561 0.019394084811210632 -0.01267737615853548
-0.04346884787082672 -0.04193182289600372 -0.0753534734249115
-0.11977925896644592 0.009670363739132881 0.3921816647052765
0.04196168854832649 -0.08835162222385406 -0.10232330858707428
0.07734882086515427 -0.11597583442926407 0.32148388028144836
-0.032539088279008865 -0.02562166191637516 0.07643032819032669
-0.07047520577907562 0.04683411121368408 0.031121037900447845
-0.035576850175857544 -0.026658477261662483 -0.06521371752023697
0.005189905874431133 -0.1102442815899849 -0.2435815930366516
0.03449536859989166 -0.06897091865539551 0.060477230697870255
0.030469000339508057 -0.07752159237861633 -0.025169603526592255
-0.06899955868721008 0.00017919688252732158 0.04640810191631317
0.11409637331962585 -0.057129520922899246 -0.00037046242505311966
0.10694530606269836 -0.057708289474248886 0.0014526601880788803
-0.08762618899345398 0.04455218464136124 0.12163157016038895
-0.06440871208906174 -0.0005703745409846306 0.0014774056617170572
-0.04334045574069023 -0.009418172761797905 0.07805600017309189
-0.03761253505945206 0.0016613788902759552 -0.054626449942588806
-0.06212783604860306 0.008817937225103378 -0.006709137931466103
0.11236406862735748 -0.05506812781095505 -0.005253978073596954
-0.041763342916965485 -0.085645891726017 0.2738127112388611
-0.08576294779777527 0.05811523273587227 0.09406876564025879
-0.034733764827251434 -0.04309263825416565 0.07133740186691284
0.08370466530323029 -0.07261789590120316 -0.0251696165651083
-0.0661250427365303 0.010103493928909302 -0.09424654394388199
-0.05883152410387993 0.05492245405912399 0.03251465782523155
-0.03303401172161102 -0.08842413127422333 0.41765591502189636
0.018431643024086952 -0.11554187536239624 -0.26900041103363037
-0.039614882320165634 -0.015586001798510551 -0.012991067953407764
0.11595070362091064 -0.05470537766814232 -0.00040038488805294037
0.1253119707107544 -0.044912293553352356 0.01194671168923378
-0.07806401699781418 -0.015718186274170876 -0.1873389333486557
-0.02345193549990654 0.16409656405448914 0.1648150384426117
0.1267254650592804 -0.06223729997873306 0.021961631253361702
-0.06644254922866821 -0.04376368969678879 -0.30046531558036804
0.06398308277130127 -0.1259240210056305 0.36783501505851746
-0.003868216648697853 -0.058639898896217346 -0.0035005221143364906
0.04871086776256561 -0.06524883955717087 0.05920480936765671
0.13746318221092224 -0.04343133419752121 -0.029796108603477478
0.1097949668765068 -0.06074801832437515 0.0027454718947410583
0.041238367557525635 -0.06280119717121124 0.05116190388798714
0.03720887005329132 -0.07374628633260727 0.0626281350851059
0.16029419004917145 -0.019086601212620735 -0.09545372426509857
0.06298591941595078 -0.11906690895557404 0.3513678014278412
-0.08051975816488266 0.008729886263608932 -0.12655004858970642
0.12870073318481445 -0.04642206430435181 0.012387135997414589
0.03056906722486019 -0.08066684752702713 -0.025758108124136925
-0.10043583065271378 0.08641501516103745 0.19297592341899872
-0.09600241482257843 0.031950704753398895 0.1372944861650467
-0.058105356991291046 0.010336866602301598 -0.014544272795319557
-0.05496687442064285 0.07889683544635773 0.01540319062769413
-0.06777545809745789 0.045283250510692596 0.021028615534305573
0.11958238482475281 -0.051996249705553055 0.008996507152915001
-0.04478813707828522 -0.0332009382545948 0.1784113347530365
0.026871468871831894 -0.0775100588798523 -0.039644401520490646
-0.039123889058828354 -0.03555244952440262 0.07557020336389542
-0.10407707840204239 -0.019541926681995392 0.2857498526573181
0.02663007564842701 -0.10936646908521652 -0.12151789665222168
0.12864671647548676 -0.04219431057572365 -0.029742365702986717
-0.04429885372519493 -0.004533819854259491 -0.06021321564912796
0.009331541135907173 -0.06860576570034027 0.1952219307422638
0.09049960970878601 -0.0660412609577179 -0.03367166221141815
0.10561400651931763 -0.09730546176433563 -0.3494258224964142
-0.07932332158088684 0.007582708727568388 0.08022285252809525
-0.07074618339538574 0.1288292557001114 0.17536701261997223
0.11113280802965164 -0.05766533687710762 -0.0019354978576302528
0.02680671028792858 -0.07548345625400543 -0.02675681933760643
-0.0815449059009552 0.1291709840297699 0.18251247704029083
-0.025438308715820312 -0.0278734490275383 0.022917114198207855
-0.025027528405189514 -0.09649543464183807 0.32431626319885254
-0.04712413623929024 -0.011286968365311623 0.0820951908826828
-0.05754688382148743 0.10780258476734161 0.04026346281170845
0.052213530987501144 -0.07339298725128174 -0.0037219179794192314
0.11193718761205673 -0.05515514314174652 0.0065091680735349655
0.11201305687427521 -0.05585616081953049 0.00501926988363266
-0.0428374782204628 0.0012987693771719933 -0.006897196639329195
-0.04733983054757118 -0.04896017536520958 -0.20303669571876526
0.1694018691778183 -0.033834099769592285 -0.16919009387493134
0.11033371835947037 -0.05692460015416145 -0.002274028956890106
-0.06531821191310883 0.10237663984298706 0.13897107541561127
0.012417817488312721 -0.09468516707420349 0.25227054953575134
-0.06757207214832306 0.0227811299264431 0.03124265745282173
-0.06154024600982666 0.045494284480810165 -0.10873942077159882
0.08898133039474487 -0.08138874173164368 -0.1298474371433258
0.041323624551296234 -0.07112712413072586 0.0010110512375831604
-0.04457531124353409 -0.0077255163341760635 -0.055700015276670456
-0.04280903562903404 0.0006781518459320068 -0.05088620260357857
-0.06768371164798737 0.05637466534972191 0.03024117276072502
0.0075745657086372375 -0.09094718098640442 0.2504577338695526
-0.058300428092479706 0.03681514039635658 0.004586046561598778
-0.1163637787103653 0.10186173021793365 0.32622218132019043
-0.062389299273490906 0.020142873749136925 0.004418495111167431
0.11071620881557465 -0.054799530655145645 0.001086205244064331
-0.07626403123140335 0.04669719189405441 0.034276269376277924
-0.07405250519514084 0.03407248482108116 0.11471815407276154
0.047221340239048004 -0.0650629848241806 0.052866123616695404
0.12000066787004471 -0.07636168599128723 -0.12601885199546814
-0.08346308767795563 0.02532501146197319 0.08574552834033966
-0.023012202233076096 -0.04361220449209213 0.032994337379932404
-0.12808838486671448 0.04433427006006241 0.36407312750816345
-0.06177482381463051 -0.02776564098894596 0.16781693696975708
-0.07694448530673981 0.04283317178487778 0.10356390476226807
