-0.0510423444211483 -0.05643188953399658 -0.029546087607741356
-0.09018215537071228 0.01088515855371952 0.014502367936074734
0.03636639192700386 -0.07640213519334793 -0.011445414274930954
0.041259124875068665 -0.07742737233638763 -0.019318565726280212
-0.08715331554412842 -0.005827652756124735 0.07486706972122192
-0.0905761793255806 0.011365891434252262 0.01584496721625328
-0.08546493947505951 0.055179864168167114 -0.01419740915298462
0.07504940778017044 -0.07356235384941101 -0.001643940806388855
-0.09198082983493805 0.01483226753771305 0.06302782148122787
-0.019366497173905373 -0.06393934041261673 0.058401137590408325
0.27639251947402954 -0.05637311935424805 0.08569929003715515
0.15702693164348602 -0.08597001433372498 0.4024997055530548
0.20170235633850098 -0.06608857214450836 -0.051340822130441666
0.022765524685382843 -0.07074171304702759 -0.0228885468095541
0.016137009486556053 -0.07733948528766632 -0.005547244101762772
-0.08764734119176865 0.039458371698856354 -0.010308247990906239
-0.029396144673228264 -0.056331560015678406 0.0264590997248888
0.13463443517684937 -0.0839807540178299 0.24560236930847168
-0.09075592458248138 0.01022944413125515 -0.0046518282033503056
0.005033016204833984 -0.07792612910270691 -0.005558437667787075
-0.05087714269757271 -0.07848379015922546 0.17049093544483185
0.08502869307994843 -0.07511725276708603 -0.006945986300706863
-0.024006370455026627 -0.07363536953926086 0.015304170548915863
-0.007225789129734039 -0.058861248195171356 -0.07844323664903641
-0.08678267896175385 0.0013666744343936443 0.042735517024993896
0.09783545136451721 -0.08745051175355911 -0.13507887721061707
-0.010048208758234978 -0.08052139729261398 0.23941156268119812
-0.08093489706516266 -0.07240361720323563 0.16215801239013672
-0.0843389481306076 0.00824070069938898 -0.004698568489402533
-0.09071789681911469 0.012685168534517288 0.00619974359869957
-0.09177999198436737 0.006079494953155518 -0.006161735393106937
-0.03796844929456711 -0.05790971219539642 -0.08758437633514404
-0.061743345111608505 -0.04120843484997749 -0.0007669627666473389
0.050527989864349365 -0.0751151591539383 -0.012215964496135712
-0.10328692197799683 -0.03397561237215996 0.37806499004364014
-0.04227922111749649 -0.08191850036382675 0.1522206962108612
-0.055361006408929825 -0.06546264886856079 -0.03131785988807678
-0.09058703482151031 0.021820101886987686 0.04202563315629959
-0.09316487610340118 0.03973306715488434 0.16691841185092926
-0.07420329749584198 -0.050808850675821304 0.014006001874804497
0.10184959322214127 -0.08100668340921402 0.2080470621585846
-0.09185327589511871 -5.279621109366417e-05 0.04344400018453598
0.017779391258955002 -0.0708397626876831 -0.02928643301129341
-0.02235259674489498 -0.06825952231884003 -0.07719908654689789
-0.054091356694698334 -0.05945051461458206 0.02334347367286682
-0.01460465881973505 -0.07473450154066086 -0.0030673218425363302
-0.0797436535358429 -0.0234976913779974 -0.03520391508936882
-0.08695876598358154 0.029944226145744324 0.01806573197245598
-0.08957096934318542 -0.006413372699171305 -0.0013452288694679737
-0.08978962898254395 0.03351206332445145 0.023705046623945236
-0.008080887608230114 -0.07705768942832947 0.17292127013206482
-0.08251810073852539 0.02368101105093956 -0.006651842035353184
-0.0831528902053833 -0.007209883537143469 -0.00264250417239964
-0.07913817465305328 0.018696025013923645 -0.026581881567835808
-0.08814232051372528 0.24425017833709717 -0.044397544115781784
-0.0841020941734314 0.1322477161884308 0.10711458325386047
-0.08756828308105469 0.014367084950208664 0.009511151351034641
-0.09458829462528229 0.20257580280303955 0.21429681777954102
-0.09029684960842133 0.01471380889415741 -0.0012176604941487312
-0.021607808768749237 -0.06832543760538101 -0.06075527146458626
-0.08996239304542542 0.18172840774059296 0.11605008691549301
0.07362356781959534 -0.07752031087875366 -0.0346861407160759
-0.051732826977968216 -0.07152125984430313 0.10136748850345612
-0.03569136932492256 -0.052749499678611755 -0.05420612171292305
0.03278402239084244 -0.0728667825460434 0.025325991213321686
0.04804249480366707 -0.07560301572084427 -0.018506331369280815
-0.06865902990102768 -0.06889183819293976 0.3382610082626343
-0.07965698838233948 -0.0239817313849926 0.07219886779785156
0.11857431381940842 -0.06537923216819763 -0.010169502347707748
0.21567922830581665 -0.06884507834911346 -0.1446194350719452
-0.08912321925163269 0.0435347817838192 0.005985650233924389
0.08760426938533783 -0.0711822435259819 -0.004818996414542198
0.02176082506775856 -0.06900037825107574 0.024771129712462425
0.02011796087026596 -0.09406749904155731 0.35953402519226074
0.042351845651865005 -0.07792229950428009 -0.005986406933516264
-0.08568394929170609 0.017014279961586 -0.060750946402549744
-0.0872340202331543 0.03348470851778984 0.036973584443330765
-0.0872974768280983 -0.010084528475999832 0.061172351241111755
0.02265964075922966 -0.07590394467115402 -0.05938951298594475
-0.04760904982686043 -0.061062734574079514 -0.004873652011156082
0.26555484533309937 -0.07168103754520416 0.11246754229068756
0.12341669201850891 -0.07162140309810638 -0.07427909970283508
0.22708648443222046 -0.07346230745315552 0.1550276279449463
0.06763589382171631 -0.0930529236793518 0.40550291538238525
0.05075487494468689 -0.07097476720809937 0.15629726648330688
0.05162263661623001 -0.07039991766214371 0.014925538562238216
0.0007287785410881042 -0.08489743620157242 0.32391658425331116
-0.04383912682533264 -0.04331125319004059 0.009201882407069206
-0.08691312372684479 0.011141104623675346 0.03635452687740326
0.04687229543924332 -0.0725887343287468 -0.02000398188829422
-0.08772245049476624 0.030457723885774612 0.021206792443990707
-0.08702736347913742 0.0401068814098835 -0.017444465309381485
0.05343621224164963 -0.08130358159542084 -0.04876548424363136
-0.08849820494651794 0.024672485888004303 0.011951973661780357
-0.08807206153869629 0.022303208708763123 0.014008427038788795
0.05152685567736626 -0.08695612847805023 0.28527799248695374
0.2062026858329773 -0.06929785013198853 0.06945645809173584
0.03832200914621353 -0.08876693248748779 0.24928569793701172
0.26586297154426575 -0.06303317844867706 0.05102633684873581
-0.013277152553200722 -0.07134509086608887 -0.008439277298748493
-0.08376310020685196 0.13239340484142303 -0.03439705818891525
-0.07296764850616455 -0.036152537912130356 -0.12633143365383148
0.21354027092456818 -0.0753188505768776 0.31180286407470703
-0.09540756791830063 0.08154457062482834 0.22312511503696442
-0.08835041522979736 0.04335000365972519 0.0035874019376933575
-0.09476777911186218 0.08612208813428879 -0.176764115691185
0.0010357704013586044 -0.07539746910333633 -0.017879322171211243
0.04422442615032196 -0.07654358446598053 -0.021467067301273346
-0.08177154511213303 -0.012425207532942295 -0.01999383047223091
0.11949609220027924 -0.07416844367980957 0.11009819805622101
-0.02624843269586563 -0.07346130162477493 0.029382118955254555
-0.08516963571310043 -0.0069631594233214855 0.10053902119398117
-0.07770591974258423 -0.009246805682778358 -0.02066889964044094
0.05063271522521973 -0.06828518956899643 -0.004754090681672096
-0.003046838566660881 -0.04994066804647446 -0.005739803891628981
0.25363340973854065 -0.07603764533996582 0.2803462743759155
0.07032891362905502 -0.08988892287015915 0.28626391291618347
-0.087995745241642 -0.04619508609175682 0.07752492278814316
-0.08849918842315674 0.009653124958276749 -0.005841504782438278
-0.0885961502790451 0.03373683989048004 0.0658094584941864
-0.10029967129230499 0.21617025136947632 0.02756507694721222
0.015058108605444431 -0.07272014021873474 0.020389679819345474
-0.03009244054555893 -0.07468557357788086 -0.01852865144610405
-0.030848924070596695 -0.06559404730796814 -0.027304768562316895
0.06559236347675323 -0.07449356466531754 0.014598475769162178
-0.08670680224895477 0.0006825732998549938 0.0928213894367218
-0.0328262522816658 -0.06100685894489288 -0.017598850652575493
0.09010551869869232 -0.07935459911823273 0.156791552901268
-0.10073931515216827 0.01681673526763916 0.09809806197881699
-0.014603144489228725 -0.05451786145567894 -0.018428504467010498
0.02462204359471798 -0.07978089153766632 -0.04438916593790054
-0.08937299251556396 0.020912189036607742 0.014758232049643993
-0.016932282596826553 -0.07679445296525955 0.04756881296634674
0.024506574496626854 -0.08783500641584396 0.3035587668418884
0.05025496333837509 -0.07444921135902405 -0.0034529927652329206
-0.09369080513715744 -0.022807404398918152 -0.004256131127476692
-0.04854096472263336 -0.077324278652668 0.21359826624393463
-0.0716814249753952 -0.05540037900209427 0.0027566864155232906
0.014644243754446507 -0.06787893176078796 -0.043058622628450394
0.03975822404026985 -0.07210531830787659 0.013073134236037731
-0.09132978320121765 0.17435309290885925 -0.07610208541154861
-0.09923863410949707 0.23303085565567017 0.271960586309433
-0.08800607919692993 0.00029149139299988747 0.06565923988819122
-0.09663374722003937 0.19078592956066132 0.2063501477241516
-0.08517694473266602 0.021453257650136948 -0.04909944161772728
-0.005959182977676392 -0.07545167207717896 -0.008931687101721764
0.00414335448294878 -0.07336029410362244 -0.013202577829360962
0.021391935646533966 -0.07075032591819763 0.010627629235386848
-0.07816393673419952 0.07479347288608551 -0.0037494339048862457
0.10670758783817291 -0.08210951089859009 0.11228688061237335
-0.10392093658447266 0.0831473171710968 0.10729452967643738
0.11061225086450577 -0.08153373003005981 0.10395196080207825
-0.08376836776733398 0.0011008046567440033 -0.03706438094377518
-0.009672860614955425 -0.07340143620967865 0.04409930855035782
0.04879257455468178 -0.07811040431261063 -0.06120004504919052
0.13367922604084015 -0.07566222548484802 0.13087967038154602
0.0220344141125679 -0.07715263217687607 0.04997291415929794
-0.08711826801300049 0.005281184799969196 0.05913717299699783
-0.09034355729818344 0.015961840748786926 0.01900773122906685
-0.08726762235164642 -0.003432309255003929 0.048596519976854324
0.017024504020810127 -0.0745580792427063 -0.0891624465584755
-0.051373954862356186 -0.06790274381637573 -0.0332195982336998
0.1896059215068817 -0.08834629505872726 0.3463059067726135
0.01639481633901596 -0.08019903302192688 0.14290226995944977
0.1872391551733017 -0.07347110658884048 0.13477127254009247
0.19368422031402588 -0.06314817070960999 -0.01088234968483448
0.05071762204170227 -0.07036926597356796 -0.007358215749263763
-0.08264892548322678 -0.0014121094718575478 -0.08170431852340698
-0.05353323742747307 -0.0820927768945694 0.2392168939113617
-0.08653339743614197 0.010010041296482086 0.01529291458427906
-0.08806035667657852 0.01507769338786602 -0.002711400156840682
0.0013001710176467896 -0.06958597898483276 0.022037802264094353
0.04446611553430557 -0.07692239433526993 -0.04943385720252991
-0.02057618834078312 -0.05974496901035309 0.007853811606764793
0.03856552019715309 -0.079804927110672 -0.017561521381139755
-0.08644077181816101 0.002498625312000513 -0.011514095589518547
-0.08329841494560242 0.1585303395986557 0.0003717634826898575
0.10502152144908905 -0.08603700250387192 0.20395424962043762
-0.01214611902832985 -0.07602285593748093 -0.008032312616705894
-0.08866855502128601 0.018974484875798225 0.05503606051206589
0.005388813093304634 -0.07515136897563934 -0.05211753025650978
-0.0855695828795433 0.013237018138170242 0.08136451244354248
0.026676088571548462 -0.07537218928337097 0.07662584632635117
0.2824854254722595 -0.023290077224373817 0.06805844604969025
0.24759739637374878 -0.08161347359418869 0.40140649676322937
0.032760340720415115 -0.0750415101647377 -0.01468200795352459
-0.08799836039543152 0.006756606977432966 -0.005416878033429384
-0.019591890275478363 -0.05851799249649048 0.022241249680519104
-0.08644132316112518 0.13395076990127563 -0.09298940002918243
-0.0827932208776474 0.04891394078731537 -0.008288532495498657
-0.08749379217624664 0.028317730873823166 0.01811029575765133
-0.0249546580016613 -0.08183939009904861 0.27922508120536804
0.09941241890192032 -0.07972534000873566 -0.03506125137209892
-0.08992906659841537 0.17635047435760498 0.23316867649555206
0.07581235468387604 -0.07982413470745087 0.0009351260960102081
0.03292574733495712 -0.08223471790552139 -0.01885351724922657
0.016512228175997734 -0.0963902473449707 0.3920908570289612
-0.08554988354444504 0.0002874545753002167 -0.011664791032671928
-0.02717757038772106 -0.06341396272182465 -0.020164959132671356
-0.09116578847169876 0.023391228169202805 0.01369619369506836
-0.08797279000282288 0.026437291875481606 0.05891726166009903
0.03975382819771767 -0.0722523182630539 0.028720641508698463
-0.0658465102314949 0.023666538298130035 0.019921086728572845
-0.08724535256624222 0.013963460922241211 0.08044454455375671
-0.08212293684482574 0.00815587304532528 -0.041518568992614746
0.04314978048205376 -0.06782384216785431 -0.022177215665578842
0.027190152555704117 -0.0764760822057724 -0.12344594299793243
0.061960525810718536 -0.07846687734127045 -0.014404021203517914
0.043695129454135895 -0.07771369814872742 -0.012495779432356358
0.13897351920604706 -0.07437950372695923 0.0715034082531929
0.03842896968126297 -0.07404512166976929 0.08907589316368103
-0.09040812402963638 0.021866533905267715 0.01211010292172432
0.10741562396287918 -0.0739831030368805 0.011307916603982449
0.14150726795196533 -0.08293512463569641 0.20318107306957245
-0.09189996123313904 0.0032273135147988796 0.059941716492176056
0.06625035405158997 -0.0675182044506073 -0.013451204635202885
-0.08942185342311859 0.03302217274904251 0.01789938658475876
0.19665201008319855 -0.08136413991451263 0.16842591762542725
-0.06563140451908112 -0.026511454954743385 -0.005935085937380791
-0.020993994548916817 -0.07633686065673828 -0.015376497060060501
-0.08863329887390137 -0.008251591585576534 0.009220611304044724
-0.008497705683112144 -0.07715382426977158 -0.02267374098300934
-0.08796708285808563 0.004231282509863377 -0.07873065024614334
0.13811913132667542 -0.07099681347608566 -0.01666390895843506
-0.07247279584407806 -0.05278989300131798 -0.001681111054494977
-0.01437554880976677 -0.07237027585506439 -0.016553714871406555
-0.07346111536026001 -0.02402498573064804 -0.037384506314992905
0.041533246636390686 -0.07781253010034561 -0.0006512189283967018
0.0020572037901729345 -0.07389045506715775 0.03369578719139099
-0.10180922597646713 0.044273361563682556 0.3797103464603424
0.04227465018630028 -0.07787393033504486 -0.011327741667628288
-0.01747656613588333 -0.07014261186122894 -0.015132580883800983
0.028751932084560394 -0.0677136555314064 0.19386622309684753
-0.09378580749034882 0.025042898952960968 0.21442513167858124
0.1728523075580597 -0.07777920365333557 0.06167120486497879
-0.013231175020337105 -0.07157479226589203 -0.05580560117959976
-0.027464210987091064 -0.06362419575452805 -0.04310787841677666
-0.08379832655191422 -0.003601397853344679 0.05851702392101288
-0.08875640481710434 0.02840334177017212 0.016444094479084015
-0.08966877311468124 0.0162365660071373 0.013103093951940536
-0.01705101877450943 -0.06388340145349503 0.146290123462677
-0.08986316621303558 0.014350870624184608 0.08353836834430695
-0.08750036358833313 0.050080396234989166 -0.10458549112081528
-0.0419856458902359 -0.05497752130031586 -0.11040966212749481
-0.08701564371585846 0.03883742168545723 0.008926770649850368
-0.09101811051368713 0.05821140110492706 0.1792057752609253
0.01674596220254898 -0.07818318903446198 -0.05146452784538269
-0.03620905801653862 -0.0639430359005928 0.05280567333102226
-0.08892051875591278 0.025829724967479706 0.01608922705054283
-0.06573037803173065 -0.05340985953807831 -0.015474013052880764
-0.09102830290794373 0.19023534655570984 0.10880474746227264
-0.08471597731113434 0.0048773158341646194 0.048912014812231064
0.030107950791716576 -0.08105029910802841 -0.09160865098237991
-0.09203821420669556 0.046166568994522095 -0.009454847313463688
0.016336334869265556 -0.07464875280857086 0.011365452781319618
0.015513105317950249 -0.072212353348732 0.021117042750120163
0.1287195086479187 -0.08031626790761948 -0.02888358384370804
-0.08933595567941666 0.012570016086101532 -0.03305689990520477
-0.08859783411026001 0.011750729754567146 0.013199323788285255
0.059958793222904205 -0.08285237103700638 0.153128519654274
-0.023506538942456245 -0.06457751244306564 -0.022837132215499878
0.015663113445043564 -0.07004521787166595 -0.07444814592599869
-0.08349655568599701 0.03775598481297493 0.01265717763453722
-0.07381501793861389 -0.037532541900873184 -0.0193987675011158
-0.08545105159282684 -0.002881119027733803 -0.0004755340050905943
-0.08611976355314255 0.016480980440974236 0.014817571267485619
0.005015864968299866 -0.07441321015357971 -0.06287359446287155
0.049867894500494 -0.0866050124168396 0.2284858077764511
0.12455646693706512 -0.07449379563331604 0.16337954998016357
0.0690193772315979 -0.07740458101034164 0.010846850462257862
0.093399778008461 -0.07289110124111176 0.006807949393987656
0.045055389404296875 -0.07916158437728882 -0.015605240128934383
0.17210789024829865 -0.07538896799087524 -0.02811316028237343
-0.09859198331832886 0.16291594505310059 -0.17667874693870544
0.019017573446035385 -0.07414665818214417 0.008029799908399582
-0.08639752864837646 0.01225416362285614 0.01464635320007801
0.2676127851009369 -0.05448018014431 0.3555377721786499
0.0787036344408989 -0.07512012869119644 -0.0016505876556038857
-0.08962700515985489 0.012489707209169865 -0.0053778444416821
-0.006264037452638149 -0.07347866147756577 0.05711083114147186
0.014494789764285088 -0.06899529695510864 0.07721026241779327
0.03140772879123688 -0.07553032040596008 0.040949463844299316
-0.08843092620372772 0.011411523446440697 -0.004494346212595701
-0.09255020320415497 0.08601976931095123 -0.008862180635333061
0.05082909017801285 -0.0825640857219696 0.028185496106743813
-0.09098885953426361 0.014328748919069767 0.012014060281217098
0.08823690563440323 -0.0760173350572586 0.041217219084501266
0.033500730991363525 -0.06728704273700714 0.02232196182012558
-0.04447030648589134 -0.07204841077327728 0.10834439843893051
-0.09350059926509857 0.21243754029273987 0.14386631548404694
0.05019916594028473 -0.06970605999231339 0.010675865225493908
-0.07698136568069458 -9.494088590145111e-05 0.07281648367643356
-0.06137338653206825 -0.06637564301490784 0.050609298050403595
0.037342555820941925 -0.0794520154595375 -0.02713780850172043
-0.00981171429157257 -0.07090429961681366 0.08013053238391876
0.03744726628065109 -0.06787654012441635 -0.007481640204787254
-0.08280559629201889 -0.02690776064991951 -0.008429458364844322
-0.08213658630847931 0.024924851953983307 0.04594346508383751
-0.0046491436660289764 -0.06178578361868858 0.050117235630750656
-0.018193243071436882 -0.07301781326532364 0.07221304625272751
-0.0884026437997818 0.014576541259884834 0.01444723829627037
0.027535971254110336 -0.07791294157505035 0.09923576563596725
-0.09212952107191086 0.014050263911485672 -0.004498384892940521
0.09462124854326248 -0.07889561355113983 0.0058171385899186134
0.025792531669139862 -0.07219640910625458 -0.1594056487083435
0.030520495027303696 -0.077725350856781 0.025963766500353813
-0.09045416116714478 0.013946471735835075 0.014983168803155422
-0.09906469285488129 0.11821719259023666 0.15343686938285828
0.05872521176934242 -0.07052811235189438 -0.018474295735359192
-0.08622187376022339 0.0019669663161039352 0.02050437033176422
-0.09048041701316833 0.13153614103794098 -0.05753219872713089
-0.07766936719417572 -0.017542924731969833 -0.0009259115904569626
0.2180778980255127 -0.07862026989459991 0.21289192140102386
-0.022376257926225662 -0.06702753901481628 -0.015079287812113762
-0.097077876329422 -0.02729453146457672 0.23071858286857605
0.04460057616233826 -0.07676982879638672 -0.022175975143909454
-0.027349893003702164 -0.06280403584241867 0.09753082692623138
0.14419350028038025 -0.07403859496116638 0.02909776382148266
0.03489500284194946 -0.08271583169698715 0.21921245753765106
-0.03981637954711914 -0.061689965426921844 0.06345868110656738
-0.06324419379234314 -0.02541308104991913 -0.08210834860801697
-0.09274569153785706 0.054404303431510925 0.04265863448381424
0.0661994069814682 -0.07629868388175964 0.1450945883989334
-0.08927527815103531 0.011477069929242134 0.041373543441295624
-0.08546648919582367 0.07572424411773682 0.18611660599708557
0.04638433828949928 -0.06972365826368332 -0.014734231866896152
0.05351264774799347 -0.07403303682804108 -0.010465951636433601
-0.05191229283809662 -0.04146895557641983 0.06783295422792435
-0.028857523575425148 -0.06566108763217926 0.10004092752933502
-0.06873318552970886 -0.07047110795974731 0.0479096919298172
-0.07965994626283646 -0.018206175416707993 0.008248670026659966
0.0771317407488823 -0.08270704746246338 -0.027116449549794197
-0.07393477857112885 -0.0775483027100563 0.3477625846862793
0.12543122470378876 -0.07144831120967865 -0.015753362327814102
-0.08477742969989777 0.010423933155834675 -0.03635632246732712
-0.0976446270942688 0.0692029744386673 0.30904531478881836
0.039212316274642944 -0.07506924867630005 -0.011520754545927048
-0.08518867194652557 -0.05444836616516113 0.02849690243601799
-0.019933683797717094 -0.05646851658821106 0.059357501566410065
-0.017741695046424866 -0.07264594733715057 0.0010743681341409683
0.1405726969242096 -0.08092086017131805 0.004178490489721298
-0.0855310708284378 -0.00018270593136548996 -0.000728219747543335
0.2561354339122772 -0.057703837752342224 0.05172256752848625
0.012511004693806171 -0.07248898595571518 -0.00809687189757824
-0.02290673553943634 -0.062016718089580536 -0.11614831537008286
-0.08474130928516388 0.0033080223947763443 0.000311488751322031
-0.08209742605686188 -0.003340973285958171 -0.002777267247438431
-0.08983875811100006 0.032548267394304276 0.03493151441216469
-0.09228365868330002 0.020540257915854454 0.014105116948485374
-0.084938183426857 0.042940668761730194 -0.05893751233816147
-0.04006185382604599 -0.050405409187078476 -0.0255746953189373
-0.006394730880856514 -0.07268508523702621 -0.017445141449570656
-0.09365211427211761 0.0050239404663443565 0.10293502360582352
-0.08639273047447205 0.01444513164460659 0.016353286802768707
-0.08196272701025009 -0.0057596322149038315 -0.021426767110824585
-0.09319544583559036 0.24170932173728943 0.06334634870290756
-0.0827246904373169 0.015043191611766815 -0.03162794187664986
-0.0004020519554615021 -0.08404111117124557 0.2185831516981125
-0.09188893437385559 -0.03002804145216942 0.07267807424068451
-0.08820328116416931 0.014624321833252907 0.012590708211064339
-0.053579725325107574 -0.06342142075300217 -0.08601785451173782
0.08662506937980652 -0.08785473555326462 0.2713586688041687
0.08901850879192352 -0.07244323939085007 0.07432541996240616
-0.004678405821323395 -0.07360707223415375 0.021173600107431412
0.04384524002671242 -0.0713452622294426 -0.008830351755023003
0.05252723768353462 -0.07759100943803787 -0.041870392858982086
-0.08934029936790466 -0.006079799495637417 -0.01597641222178936
-0.09795165061950684 0.05347397178411484 0.3539012670516968
0.027593456208705902 -0.07542441785335541 -0.023682642728090286
0.15502895414829254 -0.08024318516254425 -0.045302290469408035
-0.08530080318450928 0.01219163928180933 -0.00848412699997425
0.00369424931704998 -0.06854285299777985 0.15646211802959442
-0.0876765251159668 0.020318416878581047 0.0318034291267395
0.021536201238632202 -0.07262814044952393 0.03691022843122482
0.2420206069946289 -0.0692492201924324 0.0825645923614502
-0.08672280609607697 0.035202570259571075 0.019352983683347702
-0.05055984482169151 -0.07266398519277573 -0.03311893343925476
0.06718440353870392 -0.06737973541021347 0.0239984430372715
-0.0946442261338234 0.053438447415828705 0.1386972963809967
0.014415290206670761 -0.07141508907079697 0.03445090353488922
-0.08919766545295715 -0.0344972163438797 0.07690780609846115
0.013389067724347115 -0.06857208907604218 0.006492315791547298
0.22608569264411926 -0.0672149583697319 0.0005253497511148453
0.040882658213377 -0.07514721900224686 -0.0015242528170347214
-0.08818957954645157 0.0212428979575634 0.014855684712529182
0.009910067543387413 -0.07478239387273788 0.06846105307340622
-0.08613143861293793 0.046380575746297836 0.0240577794611454
0.17099599540233612 -0.08626227080821991 0.35158708691596985
0.08141426742076874 -0.07506194710731506 0.11557969450950623
-0.07903452962636948 0.03530078008770943 0.007854636758565903
-0.08662927895784378 0.03730534762144089 -0.0389423593878746
0.05705620348453522 -0.06701857596635818 -0.08085270971059799
-0.08790051937103271 -0.0016214122297242284 0.04384193941950798
-0.021334009245038033 -0.059286706149578094 0.05532391369342804
0.07172944396734238 -0.06942204385995865 0.044059257954359055
0.032519303262233734 -0.06753911077976227 -0.016317887231707573
-0.09715540707111359 0.0609896257519722 0.30126380920410156
0.00916077010333538 -0.0616598054766655 -0.11447849869728088
-0.08856348693370819 0.17033420503139496 -0.0668523982167244
-0.08531302213668823 0.0019376659765839577 0.08039892464876175
-0.09530406445264816 0.23910072445869446 0.11557499319314957
0.049641214311122894 -0.07207842171192169 0.10774082690477371
-0.08143572509288788 -0.04538996145129204 0.13809959590435028
-0.09514421224594116 0.1292952597141266 0.1880938559770584
0.12424898147583008 -0.07443268597126007 -0.038103487342596054
0.016881665214896202 -0.075240857899189 -0.025214659050107002
0.04851832985877991 -0.06614478677511215 -0.07613769918680191
0.16102372109889984 -0.08395805209875107 0.294192910194397
-0.03180251270532608 -0.059706784784793854 -0.0913553461432457
-0.0763535276055336 -0.011307505890727043 -0.035546980798244476
-0.08548207581043243 0.016603516414761543 0.014263184741139412
-0.08071082830429077 -0.016589172184467316 -0.013235154561698437
-0.08797810226678848 0.01540116686373949 -0.03767528384923935
-0.08550827205181122 -0.002100026234984398 0.07765314728021622
0.0492919497191906 -0.07668238878250122 0.12006524205207825
0.04734446853399277 -0.07385322451591492 0.03907585144042969
-0.09057046473026276 0.03224073722958565 0.22591640055179596
0.11153599619865417 -0.07886391878128052 0.011552274227142334
0.03940192610025406 -0.07566997408866882 -0.007537330500781536
0.09488250315189362 -0.07729513943195343 0.00778535008430481
-0.08958490192890167 0.03993450477719307 0.13752183318138123
0.12606769800186157 -0.08286361396312714 -0.14271746575832367
0.056305475533008575 -0.07901828736066818 0.04479058086872101
0.017418770119547844 -0.0772043764591217 0.07655734568834305
0.01762869954109192 -0.07299291342496872 -0.21389465034008026
-0.016283076256513596 -0.06938331574201584 -0.006286419928073883
0.1472213715314865 -0.0761394202709198 0.11035363376140594
-0.0061152782291173935 -0.07632283121347427 -0.019900523126125336
0.03968684747815132 -0.07759948074817657 -0.015403494238853455
-0.03152570500969887 -0.029301373288035393 0.07022767513990402
-0.11099911481142044 0.04594861716032028 0.25526005029678345
0.015726005658507347 -0.0711633488535881 0.051792655140161514
-0.08404073119163513 0.06846719235181808 -0.06785495579242706
0.15437771379947662 -0.0746513232588768 0.013825250789523125
-0.08298881351947784 0.15758632123470306 0.13997305929660797
-0.05533888563513756 -0.08746179938316345 0.38358187675476074
-0.08997148275375366 -0.008729832246899605 0.07271914184093475
-0.09783382713794708 0.10381696373224258 0.3245016634464264
0.14317990839481354 -0.07503673434257507 0.11777490377426147
-0.083716481924057 0.0002686794614419341 0.03550926595926285
0.010472619906067848 -0.07339414209127426 0.017750991508364677
-0.08786698430776596 0.0629647970199585 -0.12439186125993729
0.08005338907241821 -0.07677653431892395 -0.04494626820087433
-0.07196076214313507 -0.030563917011022568 -0.08039639890193939
-0.005512739531695843 -0.07064014673233032 0.01582052931189537
-0.004978278651833534 -0.07515834271907806 0.08603246510028839
-0.08766520023345947 -0.0007329592481255531 0.047403350472450256
-0.03493945300579071 -0.05591728538274765 -0.01946277916431427
0.07782191038131714 -0.07556025683879852 0.1854172945022583
-0.08406147360801697 0.05027060955762863 0.03728549927473068
-0.08688347041606903 -0.011954070068895817 0.023558389395475388
-0.0869651511311531 0.02256207913160324 0.007014638744294643
0.007947986014187336 -0.07484164834022522 0.02809809148311615
-0.009824668057262897 -0.09306485950946808 0.34657880663871765
-0.08877653628587723 -0.00346442312002182 0.07263532280921936
-0.08666807413101196 0.0724414587020874 -0.005571208894252777
-0.09718582779169083 0.12888330221176147 0.15391822159290314
-0.08910101652145386 0.03183692321181297 0.02431834489107132
-0.10292484611272812 0.12278255075216293 0.3899949789047241
0.01558635663241148 -0.0743086189031601 0.012957721948623657
0.03820671886205673 -0.07980428636074066 -0.020228596404194832
-0.08307074010372162 0.030109111219644547 -0.05537053942680359
-0.035600993782281876 -0.051748502999544144 -0.04695556312799454
0.0030835503712296486 -0.07498593628406525 0.014537883922457695
-0.08365269005298615 0.203060120344162 0.19361290335655212
0.04452128708362579 -0.09122814238071442 0.2327204942703247
-0.08604581654071808 -0.034405291080474854 0.4007667899131775
-0.07963939011096954 0.0890132486820221 -0.03514913469552994
0.05917596444487572 -0.07690811157226562 0.07440851628780365
-0.03613331913948059 -0.0723995491862297 0.003208036068826914
0.11924127489328384 -0.07862229645252228 0.01295009721070528
-0.09031438827514648 0.0873265191912651 0.08332585543394089
-0.07964377105236053 -0.009091665036976337 -0.0016816314309835434
0.05182953178882599 -0.07116752862930298 -0.006960444152355194
0.02430959977209568 -0.07569693773984909 -0.05756974220275879
0.062078364193439484 -0.07630710303783417 0.07303381711244583
-0.09413169324398041 0.09678450226783752 0.2557917833328247
-0.050305016338825226 -0.0338347852230072 0.11286569386720657
-0.04962727054953575 -0.07013754546642303 0.12299146503210068
0.0024052783846855164 -0.05984073877334595 0.008304096758365631
0.043755874037742615 -0.07069071382284164 -0.024731270968914032
0.11636582016944885 -0.08398789167404175 0.2170378863811493
0.16960634291172028 -0.08151964843273163 -0.18143650889396667
0.1871068775653839 -0.07792039215564728 0.08245857059955597
-0.09180960804224014 0.023340292274951935 0.08907300233840942
-0.0928976833820343 0.13780952990055084 0.003855251707136631
-0.0363168939948082 -0.03590291365981102 -0.031344350427389145
0.002515578642487526 -0.06585579365491867 -0.15313205122947693
-0.004011377692222595 -0.06720077246427536 -0.051353372633457184
0.1286897212266922 -0.09265224635601044 0.3864985704421997
-0.06532590091228485 -0.027518417686223984 0.04580143839120865
-0.09159153699874878 -0.02194824628531933 0.3297941982746124
0.16999956965446472 -0.07262241840362549 -0.12506017088890076
0.058155037462711334 -0.06588737666606903 0.07594392448663712
-0.037401262670755386 -0.046486563980579376 -0.02696022391319275
0.042747862637043 -0.08010556548833847 -0.0076307132840156555
0.03469683974981308 -0.07111389935016632 0.04170861095190048
-0.08810308575630188 0.023365512490272522 0.009208557195961475
-0.05487066134810448 -0.07593610882759094 0.17930760979652405
-0.09828957915306091 0.18650378286838531 0.14152005314826965
0.18392811715602875 -0.08592280000448227 0.1449958086013794
-0.08800558000802994 -0.025457125157117844 0.32001742720603943
-0.010546965524554253 -0.0839029997587204 0.1618574559688568
-0.08773192763328552 -0.0068543171510100365 -0.0023623756133019924
0.11036424338817596 -0.09517224133014679 0.37180814146995544
-0.09095734357833862 0.2527436316013336 -0.01223103329539299
0.0550328865647316 -0.07509119808673859 0.04680769145488739
0.10604675114154816 -0.0759967640042305 -0.10012675821781158
0.03936712443828583 -0.07813553512096405 0.01324375718832016
0.03707946091890335 -0.07740336656570435 -0.014790231361985207
0.016420386731624603 -0.07282177358865738 0.09770241379737854
-0.036941081285476685 -0.05474468320608139 -0.004637713544070721
-0.09839504957199097 0.19505402445793152 0.09144700318574905
0.19681373238563538 -0.07414906471967697 0.14674171805381775
-0.08881823718547821 0.010105352848768234 0.012664992362260818
0.027202725410461426 -0.07430244982242584 -0.0036326535046100616
-0.0973326712846756 0.0671747624874115 0.35022053122520447
-0.02062583714723587 -0.08045695722103119 0.14350822567939758
-0.08567039668560028 0.05195722356438637 -0.007801031693816185
-0.09670740365982056 0.2599780559539795 0.2355855107307434
0.019513068720698357 -0.07660497725009918 -0.00830603763461113
-0.0846504345536232 0.022324342280626297 0.10176464915275574
-0.0803259015083313 -0.01631970703601837 -0.024457287043333054
-0.008901124820113182 -0.077472984790802 -0.0029372088611125946
-0.04955298453569412 -0.06438915431499481 0.08924455940723419
-0.09168297052383423 0.015437470749020576 0.015668924897909164
-0.08365723490715027 -0.014284875243902206 -0.016932066529989243
0.10409284383058548 -0.0851057916879654 -0.021961119025945663
-0.09318459033966064 0.15031622350215912 0.2467980980873108
-0.09853243827819824 0.06305095553398132 0.3332839608192444
-0.07981002330780029 0.013995956629514694 -0.14192844927310944
-0.0851471945643425 -0.0172712504863739 -0.04090920090675354
0.004736835137009621 -0.06892788410186768 0.08157248795032501
0.02614910900592804 -0.06906665861606598 -0.01726662926375866
-0.04289029538631439 -0.08178084343671799 0.252399742603302
0.03674829751253128 -0.07574068009853363 -0.019976917654275894
-0.011422553099691868 -0.06963467597961426 -0.0062553174793720245
-0.08975324034690857 0.005841300822794437 0.105917789041996
-0.09403485804796219 0.014808757230639458 0.25534170866012573
-0.08890639245510101 0.03825650364160538 0.036990463733673096
-0.09640268236398697 0.2497687190771103 0.3463539183139801
0.033369362354278564 -0.07536078989505768 -0.03379678726196289
-0.038061317056417465 -0.052660729736089706 -0.002425750717520714
-0.024312200024724007 -0.07905606925487518 0.1898127794265747
-0.0711326077580452 -0.06376656889915466 0.04504946619272232
-0.08772596716880798 -0.011745501309633255 0.026900311931967735
0.15686282515525818 -0.07561357319355011 0.045855894684791565
-0.09425923973321915 0.029645316302776337 0.1182103380560875
-0.06054332107305527 -0.04379403591156006 -0.006945029832422733
-0.08495469391345978 0.18057456612586975 0.018289338797330856
-0.053592484444379807 -0.06169447302818298 -0.021579205989837646
0.04550977423787117 -0.06933340430259705 -0.023203838616609573
0.028580855578184128 -0.07335594296455383 -0.0015796152874827385
0.0009672809392213821 -0.08081335574388504 0.19426563382148743
-0.09232796728610992 0.0387662835419178 -0.09416323155164719
-0.09122724831104279 0.08200624585151672 -0.039823077619075775
-0.08984827995300293 0.012557221576571465 0.01798819750547409
0.12416160106658936 -0.08618947863578796 0.284027636051178
-0.007200188934803009 -0.07178592681884766 -0.010149005800485611
0.1138422042131424 -0.07577168941497803 0.07111500203609467
-0.08036409318447113 0.0348413847386837 0.01607714593410492
-0.018040047958493233 -0.05789398401975632 -0.021677862852811813
-0.03283746540546417 -0.0720968171954155 0.02899307943880558
0.03833351656794548 -0.08341246843338013 0.015948839485645294
-0.053909819573163986 -0.058418046683073044 0.03769424185156822
0.04171288013458252 -0.07935374975204468 -0.01524703111499548
-0.096889428794384 0.08861962705850601 0.2455880492925644
0.052589260041713715 -0.07038669288158417 0.012631591409444809
0.004987804219126701 -0.07198541611433029 -0.013025257736444473
0.014411360025405884 -0.06225453317165375 -0.09985712170600891
-0.09405124187469482 0.18641933798789978 0.08910267800092697
0.00538130197674036 -0.07773060351610184 0.11138204485177994
-0.08522063493728638 -0.02250964380800724 -0.009085997939109802
-0.0798625648021698 0.004645092412829399 -0.045069370418787
-0.007755262777209282 -0.06898188591003418 0.004281517118215561
-0.0853663980960846 0.006515342742204666 -0.03200783580541611
-0.03500930592417717 -0.054583124816417694 -0.03952564299106598
-0.09767112135887146 0.03708476573228836 0.2589707374572754
0.14743414521217346 -0.07052163779735565 5.612708628177643e-05
0.21377968788146973 -0.07455362379550934 0.11051368713378906
-0.09051305055618286 0.021852988749742508 0.013394935987889767
-0.08455219864845276 0.10884714126586914 0.11774904280900955
0.060755565762519836 -0.07080085575580597 0.051583316177129745
0.035986121743917465 -0.07531514763832092 -0.019843928515911102
-0.08302052319049835 0.11559119820594788 -0.08723931014537811
0.03854371979832649 -0.07041199505329132 -0.025730140507221222
-0.0004937238991260529 -0.07966576516628265 0.16763295233249664
-0.09292910993099213 -0.02249816432595253 -0.017765574157238007
-0.0910472422838211 0.18359573185443878 0.17592406272888184
-0.09148001670837402 0.019816480576992035 0.3027419447898865
0.039138440042734146 -0.07328693568706512 -0.016565797850489616
-0.10614140331745148 0.12195813655853271 0.33973827958106995
-0.08318554610013962 0.18207146227359772 0.06143627315759659
0.08349648863077164 -0.06765498220920563 -0.00830309372395277
0.27211660146713257 -0.04320473223924637 -0.0326521098613739
0.023631248623132706 -0.07638999074697495 -0.015721283853054047
-0.07871651649475098 0.014659278094768524 -0.05243478715419769
-0.08773455768823624 0.01701069436967373 0.19377930462360382
-0.08010280132293701 -0.01710166223347187 -0.013214237987995148
-0.000389978289604187 -0.06598951667547226 0.05337122455239296
-0.01505305990576744 -0.07778526097536087 -0.019949601963162422
-0.08616579324007034 -0.002945082262158394 0.028346586972475052
0.17315664887428284 -0.07055717706680298 0.014870593324303627
-0.07453834265470505 0.002488132566213608 -0.2777405381202698
-0.0845634788274765 0.002524743787944317 0.06431411951780319
-0.0901820957660675 -0.0018200729973614216 0.024311574175953865
0.2024259716272354 -0.07544295489788055 -0.01602962426841259
-0.08475124835968018 -0.05311593413352966 0.13183879852294922
-0.0882907435297966 0.030293945223093033 0.02316850796341896
-0.09232847392559052 0.235304594039917 0.17920807003974915
0.19562506675720215 -0.0706009715795517 0.07494565844535828
0.0007541514933109283 -0.05687081068754196 -0.08072075247764587
0.019768700003623962 -0.08234325796365738 0.13009153306484222
-0.08722524344921112 0.022831231355667114 0.014284742064774036
0.16201280057430267 -0.07458122074604034 -0.03189534693956375
0.14428794384002686 -0.08940114080905914 0.32957202196121216
-0.08805113285779953 0.0732051208615303 0.07756730169057846
0.05242488160729408 -0.08162370324134827 0.2101454883813858
0.025182440876960754 -0.07693140208721161 -0.0016376273706555367
-0.06030650809407234 -0.06602922827005386 0.10739357769489288
0.04854416847229004 -0.07334712147712708 0.05974043905735016
0.01538277231156826 -0.0717247724533081 0.014754168689250946
-0.08169145882129669 0.04566674306988716 -0.051579661667346954
-0.08717241883277893 -0.029039328917860985 0.05341293290257454
0.25936904549598694 -0.043389108031988144 0.21984201669692993
-0.07943544536828995 -0.007502804510295391 0.05744830518960953
-0.09058716893196106 -0.0025682421401143074 0.0929911732673645
-0.07913488149642944 -0.055548835545778275 -0.00132255838252604
-0.014289014972746372 -0.07739517837762833 -0.00836891122162342
-0.050999678671360016 -0.06334611773490906 0.06564239412546158
0.03975893557071686 -0.0654480904340744 -0.012773241847753525
-0.022180607542395592 -0.0569935217499733 0.017261110246181488
0.03358505666255951 -0.07375376671552658 -0.006148336920887232
-0.08906354010105133 0.00570637546479702 -0.004421732854098082
-0.08406426757574081 0.05903199687600136 -0.003990150988101959
-0.036556217819452286 -0.06688745319843292 -0.13969075679779053
0.17513059079647064 -0.08400771021842957 -0.009044583886861801
-0.07695304602384567 0.0009709186851978302 -0.17824295163154602
-0.08717436343431473 0.020200643688440323 0.011287577450275421
0.21498006582260132 -0.08775422722101212 0.38918399810791016
0.06712465733289719 -0.07664307206869125 0.11487229913473129
0.15759094059467316 -0.07818871736526489 0.055704809725284576
-0.09119584411382675 0.0869494378566742 0.07786128669977188
0.015121199190616608 -0.06792555749416351 0.043409477919340134
-0.02411884441971779 -0.05734655261039734 0.0020430348813533783
-0.08912886679172516 0.08225561678409576 0.015108277089893818
-0.006467802450060844 -0.06645245850086212 0.14525100588798523
0.011254493147134781 -0.08966045826673508 0.4065234661102295
0.022358199581503868 -0.07129642367362976 0.03686733916401863
-0.08546508848667145 0.01165749505162239 0.015014426782727242
-0.06547205150127411 -0.02086164429783821 -0.032250452786684036
0.088074691593647 -0.07732156664133072 0.017950745299458504
-0.08605007827281952 0.004473377019166946 0.01273268647491932
-0.03672279417514801 -0.0748681128025055 0.08232493698596954
0.16942599415779114 -0.07024140655994415 0.16901837289333344
-0.03371642529964447 -0.05542544275522232 -0.024285631254315376
0.14145782589912415 -0.0771254152059555 0.04290241375565529
-0.0858880877494812 0.020466294139623642 0.09509116411209106
-0.04330958425998688 -0.04702736437320709 -0.027349069714546204
-0.04100998491048813 -0.05934210494160652 0.07234977185726166
-0.07497246563434601 -0.011975964531302452 -0.09265877306461334
-0.09311903268098831 0.09728957712650299 0.03864006698131561
0.20811286568641663 -0.0701259896159172 0.01794515550136566
-0.08556756377220154 0.02296917699277401 -0.012153612449765205
-0.09318821132183075 0.05100036412477493 0.20151428878307343
-0.09635696560144424 0.05623307079076767 0.38474395871162415
-0.08748035132884979 0.048470523208379745 -0.08067972213029861
-0.09827090799808502 0.17383882403373718 0.16832301020622253
-0.09532207250595093 0.23591530323028564 -0.020225197076797485
-0.08742864429950714 0.031219258904457092 0.02036760002374649
-0.019108738750219345 -0.08743543177843094 0.23078162968158722
-0.0858449935913086 0.022047700360417366 0.10324957966804504
-0.09891046583652496 0.2318093627691269 0.3694126307964325
0.14523902535438538 -0.07449086755514145 0.24836112558841705
0.03065579943358898 -0.0736040323972702 -0.01595456525683403
-0.03397839516401291 -0.0694555714726448 0.09603418409824371
0.03150356933474541 -0.06946465373039246 -0.011067298240959644
-0.08542704582214355 0.01613287441432476 -0.014552080072462559
-0.09160061925649643 0.0733816847205162 -0.0038504658732563257
-0.010845394805073738 -0.08979392051696777 0.39352694153785706
0.1153569370508194 -0.07474569976329803 0.021245447918772697
0.25575268268585205 -0.07690760493278503 0.3453664779663086
0.07668118923902512 -0.08301566541194916 0.05356982350349426
-0.08921568095684052 0.017392082139849663 -0.00470300717279315
-0.05410582944750786 -0.0789991021156311 0.10774607211351395
0.00649883970618248 -0.06983153522014618 -0.10099391639232635
0.059750035405159 -0.06688810884952545 0.08621180057525635
-0.08646506071090698 0.04028213396668434 0.031556740403175354
0.17859627306461334 -0.08360984921455383 0.24338769912719727
0.011086791753768921 -0.07589077949523926 0.010699433274567127
-0.0658131092786789 -0.045640528202056885 -0.06170418858528137
-0.056348077952861786 -0.04694206267595291 -0.007950479164719582
0.11555245518684387 -0.07638255506753922 -0.026835612952709198
0.16577273607254028 -0.07921300828456879 0.06756876409053802
0.0740024521946907 -0.09125460684299469 0.3675636649131775
0.12389697879552841 -0.08331611752510071 0.15368036925792694
0.1322612166404724 -0.08913680166006088 0.08381873369216919
-0.08798310160636902 0.015601485967636108 0.15981219708919525
-0.08869500458240509 0.07221315056085587 0.038547854870557785
0.17847377061843872 -0.08228164166212082 0.03091518208384514
-0.08145639300346375 -0.016957607120275497 0.045721810311079025
0.21908651292324066 -0.06555585563182831 -0.08552774041891098
-0.09779311716556549 0.10540205240249634 0.3457525968551636
-0.09955616295337677 0.20237092673778534 0.28610920906066895
-0.08814650774002075 0.0211318451911211 0.01344073936343193
-0.08362053334712982 -0.013244458474218845 -0.01979040913283825
0.022312182933092117 -0.0752120316028595 -0.022917401045560837
-0.09171627461910248 0.0489516407251358 0.000986331608146429
-0.08337126672267914 -0.03216799721121788 -0.006587563082575798
-0.09019088745117188 0.013220036402344704 0.017982974648475647
-0.09562042355537415 0.033403895795345306 0.23553821444511414
-0.0062165092676877975 -0.05893024057149887 0.03882622718811035
0.2290860265493393 -0.07830405235290527 0.18721847236156464
0.00958438590168953 -0.07950062304735184 0.1109456866979599
-0.08956398814916611 0.17839530110359192 0.3177796006202698
0.033946335315704346 -0.08144465833902359 -0.01683988608419895
-0.08069249242544174 -0.0727042630314827 0.1951926052570343
0.0323156975209713 -0.072724848985672 0.03932458534836769
0.06150227040052414 -0.07756982743740082 0.04587886855006218
-0.08695313334465027 0.02043600007891655 0.013481015339493752
-0.004419323056936264 -0.07714465260505676 -0.0009508524090051651
0.09920651465654373 -0.0706939622759819 0.05746540427207947
0.2375703752040863 -0.07961292564868927 0.02720828540623188
-0.009149409830570221 -0.06435912847518921 0.013167484663426876
0.09211348742246628 -0.08941203355789185 0.3324667513370514
-0.06825891137123108 -0.08350422978401184 0.3984215259552002
-0.08890572190284729 0.048843495547771454 0.023051925003528595
-0.08478933572769165 -0.036686114966869354 -0.013674449175596237
-0.08607476949691772 0.030100977048277855 0.09997130185365677
-0.03244096785783768 -0.05454210937023163 -0.019544867798686028
0.008505930192768574 -0.07547058165073395 0.03751175105571747
0.03822606801986694 -0.07136913388967514 0.03269030526280403
-0.09810176491737366 0.20337216556072235 0.3823600113391876
0.11735723912715912 -0.08647195994853973 0.22259855270385742
-0.08824887871742249 0.06448082625865936 0.026663027703762054
-0.08937521278858185 0.025265472009778023 -0.0008732997812330723
-0.06940136104822159 0.029994964599609375 -0.09471437335014343
0.10092993080615997 -0.07119346410036087 0.053933534771203995
-0.08924267441034317 0.02228057198226452 0.01536521315574646
0.0393076166510582 -0.07028012722730637 -0.014132190495729446
-0.012203441001474857 -0.06002122163772583 -0.007796932011842728
-0.08923366665840149 0.005586851388216019 -0.004656294360756874
0.05426067113876343 -0.0792163759469986 0.014315315522253513
-0.08006290346384048 0.011144338175654411 -0.05170196667313576
-0.031830087304115295 -0.05612664669752121 -0.023972313851118088
0.04333998262882233 -0.07021985948085785 0.040529556572437286
-0.09141720831394196 0.1092517077922821 -0.002708704210817814
-0.0822625607252121 0.006761165335774422 0.04571325331926346
-0.026174943894147873 -0.04490504413843155 0.0909251794219017
-0.07241573929786682 -0.05399280786514282 -0.030398190021514893
0.2377181202173233 -0.08463499695062637 0.25239086151123047
0.03984040394425392 -0.07172826677560806 -0.014652430079877377
0.001557706855237484 -0.07506775856018066 0.006820709444582462
-0.09434252232313156 0.13141414523124695 0.000750519335269928
0.28336864709854126 -0.013920674100518227 -0.10546457767486572
-0.09199953824281693 0.13928264379501343 -0.058329470455646515
-0.08903464674949646 0.006408568471670151 0.0902719795703888
0.1531192511320114 -0.07369005680084229 -0.04721072316169739
-0.08505710959434509 0.01964743062853813 0.11938701570034027
-0.09276280552148819 0.08488645404577255 0.16490720212459564
0.017790120095014572 -0.07816700637340546 -6.309710443019867e-05
0.10524782538414001 -0.08231490105390549 0.19128981232643127
0.02491871453821659 -0.07575488835573196 -0.03708671033382416
0.043719884008169174 -0.07760535180568695 0.011801507323980331
-0.08894133567810059 0.022749431431293488 0.015414269641041756
-0.06945201754570007 -0.06279636174440384 -0.01028495468199253
-0.07692249119281769 -0.058517515659332275 -0.01764184795320034
-0.08859370648860931 0.00574080366641283 -0.0051791793666779995
-0.0947447419166565 0.07632248103618622 0.03757189214229584
0.20762842893600464 -0.07420793920755386 0.2459920346736908
-0.08996354043483734 0.209272563457489 0.044123973697423935
