-0.017545020207762718 0.09008020162582397 -0.2762432098388672
0.03629177063703537 -0.032612111419439316 -0.43271327018737793
-0.11325785517692566 0.021303968504071236 0.007501073181629181
0.10689141601324081 -0.05555054172873497 -0.0011822320520877838
-0.053591303527355194 -0.11571396142244339 0.34161317348480225
-0.007505955174565315 -0.041713565587997437 -0.3777780532836914
0.07663816213607788 -0.08999453485012054 0.15906094014644623
-0.10867662727832794 0.04506799951195717 0.014205614104866982
-0.06645921617746353 0.08426707237958908 0.08843633532524109
0.021941745653748512 -0.09232279658317566 0.04936598986387253
-0.024494849145412445 -0.10154502093791962 0.35076841711997986
-0.06863317638635635 -0.09044116735458374 -0.09067396074533463
-0.023435078561306 -0.10838466882705688 0.135428786277771
-0.06390473246574402 0.11939687281847 0.03183863312005997
-0.08035948872566223 -0.06954247504472733 -0.0241099800914526
-0.11577515304088593 -0.03684006631374359 0.14866302907466888
-0.10753828287124634 -0.018878431990742683 0.06854600459337234
0.07032152265310287 -0.08569979667663574 0.09007596224546432
-0.11032111197710037 0.008967248722910881 0.021806014701724052
-0.09062492102384567 0.08191068470478058 0.1431654542684555
-0.05766499042510986 0.14771537482738495 0.10476839542388916
0.03984079137444496 -0.05889054387807846 -0.29708966612815857
0.0003846827894449234 -0.09578148275613785 0.04661848396062851
0.04619905352592468 -0.09037814289331436 -0.1291753202676773
0.07633041590452194 -0.0792522206902504 -0.029856214299798012
-0.08663779497146606 0.01706058159470558 -0.2424514889717102
0.012817543931305408 -0.09901459515094757 -0.03227057307958603
-0.11888588964939117 0.06327257305383682 0.31473472714424133
0.13574501872062683 -0.07198556512594223 0.15305016934871674
-0.04811788350343704 0.10599905252456665 -0.10785709321498871
-0.012264280579984188 -0.09721372276544571 0.012638693675398827
-0.017151571810245514 -0.1091250479221344 0.11145006120204926
-0.10847021639347076 0.03158248960971832 0.08483736217021942
-0.08646132797002792 -0.08946547657251358 0.35898375511169434
-0.017293579876422882 -0.099278524518013 -0.06387193500995636
-0.11109437048435211 0.01094663143157959 0.08849683403968811
-0.11351953446865082 0.04261438548564911 0.24782323837280273
-0.05992448702454567 -0.08458138257265091 -0.11432219296693802
0.09631845355033875 -0.07096109539270401 0.10052978992462158
-0.09121102839708328 -0.054236721247434616 0.11345583945512772
-0.11905384063720703 0.015426987782120705 0.01392420195043087
-0.004141844809055328 -0.09872110188007355 0.00625267531722784
-0.10406515002250671 0.0852559432387352 0.0693863034248352
0.1398489624261856 -0.06025335565209389 0.20916210114955902
0.086223304271698 -0.07061188668012619 -0.022604336962103844
-0.09735612571239471 -0.054855916649103165 0.0008897148072719574
-0.04483691230416298 -0.08934952318668365 -0.03347758948802948
-0.06762026995420456 0.11174597591161728 0.07907610386610031
-0.06682826578617096 -0.06798849999904633 -0.0723496526479721
-0.11316145956516266 -0.020316440612077713 0.07196053862571716
-0.06094987690448761 0.12493005394935608 0.09913872182369232
-0.03703184425830841 0.10469569265842438 -0.2229035347700119
-0.07227491587400436 -0.07529997825622559 -0.02629636414349079
-0.1052902489900589 -0.01265634037554264 0.04934784397482872
-0.02555493637919426 -0.10348569601774216 0.2639940083026886
0.008129996247589588 -0.10072795301675797 0.06348926573991776
0.015388810075819492 -0.10162481665611267 0.01301004458218813
-0.014392388984560966 -0.1011887639760971 0.01378665678203106
-0.11889820545911789 0.007864918559789658 0.03457362577319145
0.09521204233169556 -0.05455976724624634 -0.00020945817232131958
-0.11736619472503662 0.033955320715904236 0.09334149211645126
0.043395835906267166 -0.09129425883293152 -0.00823414046317339
0.10277225822210312 -0.04641841724514961 -0.38125959038734436
0.11569391191005707 -0.06479424983263016 0.002455582842230797
0.07105527818202972 -0.08574777841567993 0.0569935068488121
0.0009650429710745811 -0.10639110952615738 0.016911443322896957
0.03449089080095291 -0.10636483877897263 0.30865609645843506
-0.077742800116539 -0.07579860091209412 -0.0435299277305603
-0.11327049136161804 0.05331692472100258 0.019004985690116882
0.007417389191687107 -0.0802670568227768 0.10971161723136902
-0.11372034251689911 0.011493228375911713 0.021177105605602264
0.079169362783432 -0.0938674658536911 0.1409853845834732
-0.09931187331676483 -0.06496431678533554 0.10618850588798523
0.036637693643569946 -0.10228963941335678 -0.12694713473320007
-0.05842994898557663 0.12116607278585434 0.16809482872486115
-0.008422387763857841 -0.09432174265384674 0.01447582058608532
-0.1137261763215065 0.04992700740695 0.16097071766853333
-0.10491777956485748 0.06884501874446869 0.18146109580993652
-0.09408188611268997 -0.04904043301939964 -0.0021985089406371117
0.0034059155732393265 -0.10116679221391678 0.2388434112071991
-0.00995621271431446 -0.09827829152345657 0.013490859419107437
-0.08279834687709808 -0.07351525872945786 0.13329237699508667
0.014824135228991508 -0.07708659023046494 -0.2715953290462494
-0.0581171028316021 -0.026596657931804657 -0.3833913207054138
-0.0064938790164887905 -0.09436851739883423 0.008262455463409424
0.06894025206565857 -0.08196186274290085 -0.05270716920495033
0.05672522634267807 -0.08998346328735352 -0.014731824398040771
-0.030093815177679062 -0.11101022362709045 -0.051435746252536774
0.10945072770118713 -0.06247469410300255 -0.0021104251500219107
0.0915897786617279 -0.06711885333061218 -0.1461629718542099
0.017978565767407417 -0.11683638393878937 0.24670912325382233
-0.007350269705057144 -0.0941074788570404 0.011621425859630108
-0.07821502536535263 0.02269080840051174 -0.10647088289260864
-0.09584521502256393 -0.03723646327853203 0.016350222751498222
0.02093074843287468 -0.09892808645963669 -0.03232120722532272
-0.11919065564870834 -0.053553901612758636 0.3550202250480652
0.03697075694799423 -0.10450676083564758 -0.03830523416399956
-0.11334238946437836 0.017620282247662544 -0.002216411754488945
-0.06836901605129242 0.07746588438749313 -0.19742731750011444
0.08263973891735077 -0.02450205385684967 -0.2619311213493347
0.06412584334611893 -0.08184890449047089 -0.012180596590042114
-0.01003597117960453 -0.10120408236980438 0.010708116926252842
0.008127633482217789 -0.11119814217090607 0.0948157086968422
-0.12380047142505646 0.05716229975223541 -0.13970966637134552
0.073469378054142 -0.10275015980005264 0.19736069440841675
0.06506378203630447 -0.09249311685562134 -0.027230963110923767
-0.03215106949210167 -0.09093735367059708 0.021648844704031944
-0.0032535437494516373 -0.09982015937566757 0.011665521189570427
-0.036174360662698746 -0.1062563806772232 -0.060231126844882965
0.05786479264497757 -0.08992308378219604 -0.013721099123358727
-0.08404862880706787 0.086646169424057 0.045826561748981476
-0.05717381834983826 0.13111503422260284 0.09835696965456009
-0.11311031132936478 0.056225210428237915 0.12879636883735657
-0.09302771836519241 0.09547913074493408 -0.006687788292765617
0.08584074676036835 -0.07841582596302032 -0.029638003557920456
0.1448141634464264 -0.05700182169675827 -0.3387090563774109
0.043667763471603394 -0.08099175989627838 0.01049660611897707
-0.08269546926021576 -0.07062254101037979 -0.02455970272421837
0.07536706328392029 -0.08346905559301376 -0.054345905780792236
-0.08859296143054962 0.026087377220392227 -0.18390607833862305
0.10751945525407791 -0.06475543975830078 -0.005009259097278118
0.11577761173248291 -0.057374872267246246 0.014037268236279488
0.09533084183931351 -0.06784667819738388 -0.028892582282423973
0.10933409631252289 -0.06955181062221527 -0.004033757373690605
0.11350977420806885 -0.040002431720495224 -0.18785035610198975
-0.06051605939865112 0.13180726766586304 -0.10148954391479492
-0.10820832848548889 -0.02957780472934246 0.25904229283332825
-0.00657225213944912 -0.10201369971036911 0.03220021724700928
-0.08019175380468369 -0.06652918457984924 -0.032109133899211884
0.06562505662441254 -0.08347974717617035 -0.018200166523456573
-0.05185861885547638 -0.0876787006855011 0.08553288877010345
-0.03476738929748535 -0.10538344085216522 -0.11272728443145752
-0.10940535366535187 -0.024140868335962296 0.0762597844004631
0.10543308407068253 -0.05994095653295517 -0.0010370370000600815
0.08728305995464325 -0.07866902649402618 -0.028547214344143867
0.06428620964288712 -0.09955229610204697 -0.01586284302175045
-0.11449695378541946 -0.0009252121672034264 -0.010225349105894566
-0.08771529793739319 0.09742296487092972 0.18507030606269836
0.06742775440216064 -0.09797373414039612 -0.021206745877861977
-0.10874300450086594 -0.024063222110271454 0.0678664967417717
0.08733553439378738 -0.07862287014722824 -0.1366882473230362
-0.10835877805948257 -0.017382457852363586 0.06914626806974411
0.02330622635781765 -0.11083345860242844 -0.10935193300247192
-0.1083458662033081 0.06964553147554398 -0.06646586209535599
0.07143127173185349 -0.09388699382543564 0.04086513817310333
-0.09775718301534653 -0.052666351199150085 -0.11529217660427094
-0.11485421657562256 0.07390456646680832 0.240966796875
-0.07709183543920517 0.0552411749958992 -0.2369861900806427
0.06716151535511017 -0.09250439703464508 -0.010663293302059174
-0.08462859690189362 -0.07117771357297897 -0.02359164133667946
0.022366613149642944 -0.11853004992008209 0.19094108045101166
-0.09990087151527405 -0.04849628359079361 -0.0044365134090185165
-0.07061581313610077 -0.07121732831001282 -0.02500666119158268
-0.04488709196448326 -0.0907488614320755 0.13177353143692017
0.055967312306165695 -0.0952547937631607 0.03594585880637169
0.0019540227949619293 -0.09723566472530365 0.0011401697993278503
-0.10319292545318604 -0.05164150893688202 -0.00915659498423338
-0.08103619515895844 -0.07632437348365784 0.01625809632241726
-0.08379394561052322 0.07762411236763 -0.287309467792511
-0.08527767658233643 -0.06371928006410599 0.05041961744427681
-0.04609111696481705 0.12800465524196625 -0.2782554626464844
0.09448671340942383 -0.05278097465634346 0.07438250631093979
-0.11606766283512115 -0.021203018724918365 0.05134984478354454
-0.10301640629768372 -0.04236098378896713 0.0016087200492620468
-0.09458617866039276 0.05717897415161133 0.18029199540615082
0.06392797827720642 -0.09231457859277725 -0.016832146793603897
0.10409633070230484 -0.07540576905012131 0.13055333495140076
0.00023417547345161438 -0.12005500495433807 -0.04820505157113075
-0.06819470226764679 0.11873649805784225 -0.13153617084026337
-0.0797661617398262 -0.08554806560277939 -0.07504468411207199
-0.023347705602645874 -0.08981412649154663 0.01210786309093237
0.1193300187587738 -0.035620201379060745 -0.07472623139619827
-0.060740962624549866 -0.08469023555517197 -0.03848450258374214
0.08268189430236816 -0.07860608398914337 -0.025743231177330017
-0.11867233365774155 0.05940195173025131 0.010530933737754822
0.02493569441139698 -0.09778042137622833 0.006537439301609993
0.12160438299179077 -0.0566338486969471 0.0024596266448497772
0.13242071866989136 -0.08634672313928604 0.3467215597629547
-0.06836458295583725 0.1200244128704071 -0.022308729588985443
0.026966791599988937 -0.10367755591869354 0.1041078194975853
-0.07829748094081879 -0.07292341440916061 -0.025811653584241867
-0.07400692254304886 -0.07643749564886093 -0.02104642242193222
-0.10505632311105728 0.01872400753200054 0.16875587403774261
-0.0842553973197937 -0.06337584555149078 -0.029554422944784164
0.10682627558708191 -0.07569640874862671 0.3539711833000183
-0.08414318412542343 0.02431424893438816 0.08909153938293457
-0.08294252306222916 0.13836395740509033 0.29912087321281433
-0.12111340463161469 0.010473804548382759 0.006635250989347696
-0.06536974012851715 -0.006730362772941589 -0.340283066034317
-0.0014741886407136917 -0.11840327829122543 0.3663402795791626
0.011718843132257462 -0.10873118788003922 -0.029814884066581726
0.04238585755228996 -0.010401608422398567 -0.5258293747901917
0.07110320031642914 -0.07377703487873077 -0.16177663207054138
-0.08877958357334137 0.09582125395536423 -0.1232079342007637
-0.09345218539237976 -0.04993440955877304 -0.004472173750400543
-0.11454138904809952 0.032779186964035034 0.09685046225786209
-0.11652479320764542 0.010328324511647224 0.0027194530703127384
-0.09391672164201736 0.0545286163687706 -0.14384502172470093
0.09438622742891312 -0.06517210602760315 -0.19099938869476318
0.03147216513752937 -0.10213771462440491 0.10748215019702911
0.004315259400755167 -0.1126934066414833 -0.12097310274839401
0.05164746940135956 -0.10571713745594025 -0.05144838988780975
0.11535624414682388 -0.05866643041372299 -0.018558472394943237
0.11392893642187119 -0.07582665979862213 0.0983966588973999
0.08286455273628235 -0.07646799087524414 -0.007811984047293663
-0.016034668311476707 -0.10842472314834595 0.017614377662539482
0.0448315367102623 -0.0990004688501358 -0.01282099075615406
-0.07336292415857315 0.11160954087972641 -0.05483134835958481
-0.07269151508808136 0.0655059665441513 -0.21833224594593048
-0.060887329280376434 0.11141609400510788 0.07242301851511002
0.130967915058136 -0.029528919607400894 -0.10194672644138336
-0.10507814586162567 -0.023922981694340706 0.06115826964378357
-0.07618226110935211 -0.07297024130821228 -0.045768655836582184
0.07836439460515976 -0.0569935068488121 -0.2448412925004959
0.02618061751127243 -0.097508005797863 -0.16666574776172638
0.04304007068276405 -0.10159489512443542 0.017410635948181152
-0.09143388271331787 -0.07011669874191284 0.04963979870080948
-0.0823819562792778 -0.05848933383822441 0.08379518985748291
0.09346595406532288 -0.08472824096679688 0.11654894053936005
-0.11612451076507568 0.019472038373351097 0.004088573157787323
0.03977847099304199 -0.10156316310167313 -0.04416755959391594
-0.03385427966713905 0.11398883163928986 -0.036276042461395264
-0.11883223056793213 0.017522862181067467 0.012906108982861042
-0.10821820050477982 0.08009888976812363 0.09501521289348602
0.060323476791381836 -0.08705279976129532 -0.012092586606740952
-0.09869936108589172 0.07403548806905746 0.04864535853266716
-0.11612994968891144 0.018431242555379868 -0.00045448169112205505
0.023625927045941353 -0.10971817374229431 -0.04621061310172081
-0.04370281845331192 -0.11203113943338394 0.2869851887226105
-0.027588222175836563 -0.0493415966629982 -0.039171621203422546
-0.019383762031793594 -0.11544247716665268 0.2058512419462204
-0.1150711327791214 0.019755074754357338 0.055803775787353516
-0.04873736575245857 -0.06033128872513771 -0.24960805475711823
-0.0989902913570404 -0.014549870043992996 0.053853340446949005
-0.0686594769358635 0.10893077403306961 0.10616429895162582
-0.02316565252840519 -0.09696928411722183 0.015182462520897388
-0.013473881408572197 -0.027125945314764977 -0.46238285303115845
-0.10187143087387085 -0.05294448137283325 -0.002449383959174156
-0.05368392542004585 -0.08926286548376083 -0.04661037027835846
-0.07758386433124542 -0.082513228058815 -0.09765298664569855
0.03845583647489548 -0.09771886467933655 -0.03595487400889397
-0.1124565601348877 0.043225422501564026 0.032438211143016815
-0.04662039875984192 -0.07648834586143494 -0.17731967568397522
-0.07085225731134415 0.009153067134320736 0.05617490038275719
0.0401051864027977 -0.12256871908903122 0.3773910105228424
0.06571479141712189 -0.09896297752857208 -0.01083991676568985
0.042902566492557526 -0.0929507315158844 -0.0003589130938053131
0.01962447352707386 -0.11777854710817337 0.3516765534877777
0.04083636403083801 -0.11092814803123474 -0.12465489655733109
0.04879949986934662 -0.1083320900797844 -0.09314209222793579
0.1038597822189331 -0.06933135539293289 -0.010123105719685555
-0.07728816568851471 -0.07705920189619064 -0.029413599520921707
-0.1284937858581543 0.07364994287490845 0.34948083758354187
0.009524321183562279 -0.11354167014360428 0.33230897784233093
0.10923606157302856 -0.058855459094047546 -0.004812293685972691
-0.07681373506784439 0.12505224347114563 0.27042901515960693
-0.01964452676475048 -0.09548068046569824 0.01498021837323904
-0.11850227415561676 0.008801013231277466 0.0013752738013863564
-0.07886368036270142 -0.08034934103488922 -0.027372483164072037
-0.04132712259888649 0.11455680429935455 -0.3503662645816803
0.09801492840051651 -0.07992566376924515 -0.1009637713432312
0.11361360549926758 -0.06416606903076172 0.0025073252618312836
0.06432587653398514 -0.08609949797391891 -0.01743198372423649
-0.12906710803508759 -0.03404374048113823 0.3221049904823303
-0.01553473249077797 -0.09855163842439651 0.019432872533798218
0.057048968970775604 -0.08466801047325134 0.03892860189080238
-0.019807778298854828 -0.09467325359582901 0.015536862425506115
-0.12217836827039719 0.014648785814642906 0.013758587650954723
-0.12540537118911743 0.022535670548677444 0.0010781250894069672
0.16019976139068604 -0.06967373937368393 0.3693072497844696
-0.07270362228155136 -0.07107450813055038 -0.026616200804710388
-0.0749739333987236 0.0348844975233078 -0.3481205105781555
-0.10561944544315338 -0.023846760392189026 0.13497275114059448
-0.049288310110569 -0.10083675384521484 0.11597542464733124
0.004218248650431633 -0.10695311427116394 0.12426203489303589
-0.0835806131362915 0.10332528501749039 0.038500748574733734
-0.07716438919305801 -0.0743604376912117 -0.03311909735202789
0.05543876811861992 -0.08980458974838257 0.002790424507111311
0.07187626510858536 -0.09176860749721527 -0.02387876994907856
-0.11458410322666168 -0.009369434788823128 0.0051100850105285645
-0.08715461194515228 -0.06729599833488464 -0.033023037016391754
-0.08276396244764328 -0.07772180438041687 -0.028003942221403122
-0.06658709794282913 0.11314643919467926 0.06534814089536667
0.090650275349617 -0.07015843689441681 -0.01906265690922737
-0.11683458834886551 0.029447663575410843 0.10422565042972565
-0.03012406826019287 -0.10003389418125153 -0.06806177645921707
0.10059428960084915 -0.06809654086828232 -0.0002379007637500763
0.04198946803808212 -0.03944038227200508 -0.3807799816131592
0.10742820799350739 -0.07134094834327698 -0.010760584846138954
-0.08982154726982117 0.08958853036165237 0.02024838887155056
-0.07607215642929077 -0.074529267847538 0.04510549455881119
0.01962994784116745 -0.10960246622562408 -0.05428222566843033
-0.1111367791891098 -0.01306869089603424 -0.12081261724233627
-0.12310907244682312 0.0658244714140892 -0.00930824689567089
-0.020836183801293373 -0.09497853368520737 0.008231681771576405
-0.07458499073982239 0.10578902065753937 -0.10506469756364822
0.1173514574766159 -0.055922724306583405 0.01686675474047661
0.009010706096887589 0.06052941456437111 -0.427886962890625
-0.07775400578975677 -0.06763613224029541 -0.029873784631490707
0.07516147196292877 -0.07111629098653793 0.0016051186248660088
-0.05668534338474274 -0.058251358568668365 -0.3116662800312042
0.020044567063450813 -0.1048315018415451 0.00019204802811145782
0.15831829607486725 -0.06056147813796997 -0.2754083275794983
0.05428830534219742 -0.07895258069038391 -0.021317241713404655
-0.01687590591609478 -0.09667309373617172 0.010368315503001213
-0.09866613894701004 0.10754045844078064 -0.00796923041343689
0.04078648239374161 -0.09171126782894135 -0.004387597553431988
-0.12914736568927765 -0.012418476864695549 0.40722060203552246
0.011939874850213528 -0.0941309928894043 -0.1522436887025833
-0.0009478237479925156 -0.10364314168691635 -0.043672554194927216
-0.045290976762771606 -0.09255305677652359 -0.022675033658742905
0.06636470556259155 -0.09079300612211227 -0.013021031394600868
-0.07706817239522934 -0.07691662013530731 -0.021201571449637413
-0.005668351426720619 -0.09211175888776779 0.01483500748872757
-0.10114498436450958 -0.020081276074051857 -0.13637252151966095
-0.024791765958070755 -0.09521055966615677 0.020156510174274445
0.05547569692134857 -0.07817874848842621 0.009925570338964462
-0.11661366373300552 0.01611160859465599 -0.004497518762946129
0.05914045125246048 -0.08937135338783264 -0.20412258803844452
-0.02047332003712654 -0.10167953372001648 -0.0551304891705513
-0.0034238435328006744 -0.0868743285536766 0.013802707195281982
-0.11413063108921051 0.014771632850170135 0.02760463021695614
-0.08699558675289154 -0.07054688781499863 0.05492774769663811
-0.1130795031785965 0.009786659851670265 0.009777456521987915
0.04231947660446167 -0.08856870234012604 0.012366726994514465
-0.11335158348083496 0.019036706537008286 0.026207298040390015
-0.030801787972450256 -0.12064798176288605 0.3096177279949188
-0.0701521784067154 -0.07035481929779053 -0.11894486099481583
-0.08029771596193314 -0.08399353921413422 0.4203682541847229
0.04059610143303871 -0.11035219579935074 -0.039348483085632324
0.1013273149728775 -0.07080772519111633 0.0011691488325595856
0.09024910628795624 -0.07975650578737259 -0.12391090393066406
-0.07568511366844177 -0.0697670429944992 -0.028966952115297318
-0.0777774304151535 -0.07274085283279419 -0.029297687113285065
-0.11737798154354095 0.013511642813682556 0.0018636919558048248
0.12114546447992325 -0.09129545092582703 0.2104102522134781
0.05473799258470535 -0.09349893033504486 0.1173783540725708
-0.06978395581245422 -0.026523148640990257 -0.21675291657447815
-0.11119155585765839 0.05469072610139847 0.15285904705524445
-0.11555816233158112 0.03455004841089249 0.01160314492881298
-0.0651998370885849 0.09039902687072754 -0.24255406856536865
0.09590359777212143 -0.08975083380937576 0.17735819518566132
0.08248372375965118 -0.000682624988257885 -0.4211280941963196
0.1162232905626297 -0.06511931121349335 0.008242585696280003
-0.012527931481599808 -0.10131887346506119 0.022470511496067047
-0.1167890876531601 0.053055014461278915 0.07177045941352844
-0.008011141791939735 -0.0975092202425003 0.007645275443792343
-0.09685010462999344 -0.07412175089120865 0.08577285706996918
-0.12464959174394608 0.025236951187253 0.09172888100147247
-0.08329376578330994 -0.07954332232475281 -0.029142899438738823
-0.11411011964082718 0.04023492708802223 -0.07976963371038437
-0.12169469892978668 0.013663133606314659 0.003910860978066921
-0.07263687998056412 -0.07170241326093674 -0.018544645980000496
-0.07178010046482086 -0.06561042368412018 -0.028838027268648148
0.09051905572414398 -0.0699627548456192 -0.03270110487937927
0.0875462144613266 -0.07401326298713684 -0.011663222685456276
0.052939705550670624 -0.06938370317220688 -0.23665578663349152
0.10705052316188812 -0.0641116201877594 0.01201753318309784
-0.014926962554454803 -0.09912225604057312 0.01640327461063862
0.13213123381137848 -0.03407757729291916 0.006642497610300779
-0.11543786525726318 -0.014805059880018234 0.31309694051742554
0.10278428345918655 -0.06636523455381393 -0.09934662282466888
-0.01275815349072218 -0.09342996031045914 0.018490184098482132
-0.0771961584687233 -0.06858392804861069 -0.03235604614019394
0.05228843539953232 -0.10441061854362488 0.1288013905286789
0.09486935287714005 -0.06527892500162125 -0.1293962001800537
0.10828336328268051 -0.05736025795340538 0.002094736322760582
0.03610403090715408 -0.1078140065073967 -0.030042031779885292
-0.11143908649682999 0.027154453098773956 0.025068117305636406
0.08186737447977066 -0.0868748277425766 -0.09928639233112335
-0.08113787323236465 -0.07654201984405518 -0.029599081724882126
0.025263503193855286 -0.10414863377809525 0.13738954067230225
0.117897167801857 -0.0700020045042038 -0.17833971977233887
-0.12065519392490387 0.023594608530402184 0.2685443162918091
-0.012332326732575893 -0.09987979382276535 0.051872991025447845
-0.010308811441063881 -0.0933203175663948 -0.1341175138950348
-0.06645774841308594 -0.06823788583278656 0.06384943425655365
-0.10186272859573364 0.08640868961811066 0.42795687913894653
-0.07915864884853363 -0.07417426258325577 0.27890533208847046
-0.12010915577411652 0.017599090933799744 -0.0023585292510688305
-0.1262935996055603 0.05453639477491379 0.39486992359161377
0.10554425418376923 -0.061845362186431885 -0.0010660374537110329
-0.01161208376288414 -0.09505617618560791 0.008142516016960144
-0.11235171556472778 0.0084234569221735 0.029654832556843758
-0.1134682297706604 -0.011858743615448475 -0.055098388344049454
-0.00512779550626874 -0.09692273288965225 0.013691142201423645
-0.08223102986812592 -0.07598741352558136 -0.029648233205080032
-0.102049820125103 -0.04720231518149376 0.003326859325170517
0.007434512488543987 -0.06937423348426819 -0.33643582463264465
-0.08707011491060257 0.0880955159664154 -0.08679789304733276
-0.03614099696278572 -0.04133782908320427 -0.3511558771133423
-0.10432156175374985 -0.0641101598739624 0.022313859313726425
-0.1136111468076706 0.005018133670091629 0.09356552362442017
-0.09789799898862839 -0.05522874742746353 0.0033674445003271103
-0.12211047857999802 0.041558168828487396 -0.06325111538171768
-0.11250441521406174 0.05116329342126846 0.012276221066713333
0.040161795914173126 -0.09624077379703522 0.043412163853645325
-0.10644939541816711 -0.07194651663303375 -0.16607962548732758
-0.11771122366189957 0.01585059054195881 0.0033099669963121414
-0.11821138858795166 0.04018097370862961 0.09445633739233017
-0.0752997174859047 0.09316185116767883 0.009719692170619965
0.06048627197742462 -0.09029296785593033 -0.012816596776247025
-0.07824381440877914 -0.07299443334341049 -0.027787594124674797
0.07001537084579468 -0.0898883119225502 -0.01573239266872406
0.08425245434045792 -0.0744289979338646 -0.030778976157307625
-0.07860513031482697 0.09923163801431656 0.03563286364078522
-0.08012199401855469 -0.07663174718618393 -0.023471694439649582
-0.09870938956737518 0.07908378541469574 0.010052910074591637
-0.10274185240268707 -0.04940785840153694 0.004267596639692783
-0.11503990739583969 0.0229397714138031 0.0025002602487802505
0.005599590949714184 -0.09549670666456223 0.2104000449180603
0.10369476675987244 -0.059870585799217224 -0.0066259209997951984
0.08184558153152466 -0.08750589191913605 0.024995073676109314
-0.09200302511453629 0.09151117503643036 0.30227726697921753
0.1183851808309555 -0.07691709697246552 -0.06344805657863617
0.08362855017185211 -0.07784835994243622 -0.14296835660934448
-0.00595715269446373 -0.09313079714775085 0.06666712462902069
0.006514459848403931 0.04913076013326645 -0.5017821788787842
0.08238165080547333 -0.0810559019446373 -0.011398069560527802
0.0885036513209343 -0.07500873506069183 -0.03597352281212807
0.003023305907845497 -0.11712496727705002 -0.05642198771238327
-0.058249954134225845 -0.08679353445768356 0.039146922528743744
-0.02342303842306137 -0.1110290065407753 0.4106253385543823
-0.018466319888830185 -0.0997064858675003 0.020681247115135193
-0.10999719798564911 -0.018604660406708717 0.049626320600509644
-0.11444488167762756 -0.035079218447208405 0.09737849235534668
0.01028195396065712 -0.10801597684621811 -0.09521536529064178
0.08268805593252182 -0.04934699833393097 -0.2207644283771515
0.04252165928483009 -0.10146059095859528 -0.04802659898996353
-0.08333191275596619 -0.06037275120615959 0.06649471819400787
-0.09952167421579361 0.008743061684072018 -0.14608582854270935
-0.08083706349134445 0.03894704952836037 0.030084745958447456
0.10317301005125046 -0.05712982267141342 -0.006191352382302284
-0.07441696524620056 -0.07852520793676376 -0.02932589501142502
-0.05576518177986145 0.12066192179918289 0.039908766746520996
-0.045082613825798035 -0.08601348102092743 -0.16853752732276917
-0.05422913655638695 0.10331232100725174 -0.1749059408903122
-0.0722959116101265 0.08601618558168411 0.017910275608301163
-0.06315085291862488 -0.08838651329278946 0.031056558713316917
-0.11799216270446777 -0.039900749921798706 -0.021903246641159058
-0.10255206376314163 -0.046372801065444946 0.008819633163511753
-0.07329057157039642 -0.07818135619163513 -0.027044063434004784
-0.11592108756303787 0.023208925500512123 0.20105761289596558
-0.050068438053131104 -0.058316804468631744 -0.20418648421764374
-0.053367603570222855 0.09398220479488373 -0.18851198256015778
0.08682657778263092 -0.07952858507633209 0.07633776217699051
-0.1126977801322937 0.0013705892488360405 -0.07389644533395767
-0.056395139545202255 0.14165514707565308 0.23168301582336426
-0.08526792377233505 0.09441395848989487 -0.05329226329922676
-0.11030083149671555 -0.029642915353178978 -0.07246099412441254
-0.01108391210436821 -0.09066138416528702 0.01348504051566124
-0.12883050739765167 0.054276205599308014 0.3457406163215637
-0.05829116702079773 -0.0828942209482193 -0.02916843444108963
0.10442603379487991 -0.07899600267410278 0.00708067137748003
-0.09676890075206757 0.07882241159677505 0.19377808272838593
-0.03735504299402237 -0.05676404386758804 -0.16836853325366974
0.049131378531455994 -0.10343027859926224 -0.0441632941365242
-0.07629544287919998 -0.07236730307340622 -0.028177112340927124
0.05517950654029846 -0.12410096079111099 0.4141388535499573
-0.07634851336479187 0.11590787023305893 0.04460657015442848
-0.0684792697429657 -0.06102055683732033 0.061799824237823486
-0.11089102178812027 -0.04544169828295708 -0.06855173408985138
-0.07612760365009308 -0.07364063709974289 -0.024171460419893265
0.03263792023062706 -0.09327589720487595 0.11932260543107986
-0.06762468814849854 0.10622064024209976 -0.07736237347126007
-0.08815541863441467 -0.07278567552566528 0.047068964689970016
0.06433514505624771 -0.0987091213464737 -0.0804578885436058
0.11472972482442856 -0.03159928694367409 0.05857054516673088
-0.1027803048491478 -0.04460294544696808 0.012514010071754456
-0.08324526250362396 -0.07761169224977493 -0.0829458013176918
0.031627945601940155 -0.09845743328332901 0.05719856917858124
0.10354270040988922 -0.07314174622297287 -0.009534593671560287
0.07805472612380981 -0.08757095783948898 -0.026925092563033104
0.10542861372232437 -0.06755527853965759 -0.009116997942328453
0.11983685195446014 -0.04701344668865204 0.1883857697248459
0.014020679518580437 -0.09048290550708771 -0.27016016840934753
-0.004682731349021196 -0.09338854253292084 -0.21195898950099945
-0.11274373531341553 -0.03129737079143524 -0.07497727125883102
-0.11793600022792816 0.015355714596807957 0.0008611511439085007
0.043530866503715515 -0.11321060359477997 -0.032525435090065
0.08357750624418259 -0.06764698028564453 0.04909956082701683
-0.04340248554944992 -0.106133833527565 0.1433812379837036
0.07129275798797607 -0.10330750793218613 0.23499935865402222
-0.09817122668027878 -0.050609637051820755 -0.003043282311409712
-0.11746441572904587 0.06239417567849159 0.017038289457559586
-0.079146608710289 -0.07482361793518066 -0.02610335685312748
-0.028904693201184273 -0.10856440663337708 0.014956447295844555
0.072538822889328 -0.03042967990040779 -0.3501901626586914
-0.01065073162317276 -0.11112300306558609 0.04535936564207077
0.034566864371299744 -0.10136324167251587 -0.11501090228557587
0.08810877799987793 -0.08173464238643646 -0.012433362193405628
-0.06302522867918015 0.05934709683060646 -0.040155503898859024
-0.07051761448383331 -0.09970831871032715 0.10860209167003632
0.12020491063594818 -0.05655607581138611 0.010173624381422997
-0.10372651368379593 0.06872143596410751 0.20624083280563354
-0.07382404804229736 -0.07410308718681335 -0.024409351870417595
-0.11930063366889954 0.04311220347881317 0.05759929120540619
-0.08471138775348663 0.06327176094055176 0.4233875870704651
-0.11161372065544128 0.023716606199741364 0.006528568919748068
-0.001181870698928833 -0.0964222401380539 0.016166307032108307
0.07471109181642532 -0.08976452052593231 0.1753195822238922
-0.08048860728740692 0.019649678841233253 -0.2981438636779785
-0.09212704747915268 -0.04647325724363327 -0.20449841022491455
-0.11340987682342529 -0.021238550543785095 0.054133977741003036
-0.07437020540237427 -0.07316823303699493 -0.12017063051462173
-0.10401978343725204 0.10970020294189453 0.2144402712583542
0.09935259073972702 -0.05655747652053833 -0.0019631984177976847
-0.09339519590139389 -0.05133182555437088 0.0007138840155676007
-0.09843306243419647 0.08389655500650406 0.11418592929840088
0.01585472747683525 -0.1088169515132904 0.13061468303203583
0.047427672892808914 -0.0804770439863205 -0.15554848313331604
0.11698566377162933 -0.02737599052488804 -0.16069507598876953
-0.07274799793958664 -0.1090058758854866 0.06645248085260391
0.12431157380342484 -0.04801583290100098 0.11727242171764374
0.0020486731082201004 -0.09307914972305298 0.0028887158259749413
-0.10430476814508438 -0.033946357667446136 0.22379183769226074
-0.013138704933226109 -0.09530817717313766 0.009156852960586548
-0.10815983265638351 0.06773833185434341 -0.020691171288490295
-0.005394844338297844 -0.09785636514425278 0.01355648785829544
-0.09478117525577545 0.0970340445637703 0.15749295055866241
-0.11557185649871826 0.021253762766718864 0.0008604414761066437
0.10593570023775101 -0.07289538532495499 0.10223965346813202
0.06204983592033386 -0.10914498567581177 -0.07540882378816605
-0.11412893235683441 -0.020624620839953423 0.070614293217659
0.030469968914985657 -0.11041280627250671 0.10812557488679886
0.053115114569664 -0.09271743148565292 0.011982647702097893
-0.11636042594909668 0.01031542755663395 0.002233952283859253
0.07445640861988068 -0.09093717485666275 -0.02529051899909973
-0.06988896429538727 -0.03857432305812836 0.1592489778995514
-0.10990887135267258 0.017676539719104767 -0.0010513272136449814
-0.005077128764241934 -0.09068506211042404 0.011436697095632553
0.06819798797369003 -0.09087477624416351 -0.011799454689025879
-0.10265668481588364 0.07373794913291931 0.21323569118976593
-0.041508715599775314 0.2036750763654709 0.3786616623401642
0.07324497401714325 -0.10590062290430069 0.3143899142742157
0.10674576461315155 -0.06465766578912735 -0.0029610823839902878
-0.004719454795122147 -0.09549064189195633 0.010373400524258614
-0.0502287782728672 0.12932701408863068 0.14254379272460938
-0.08420661091804504 0.09801927208900452 0.05698671564459801
-0.12293344736099243 0.034281257539987564 0.36966535449028015
-0.10343855619430542 0.1105741560459137 0.3793112337589264
-0.11181770265102386 0.04822460189461708 0.040475767105817795
-0.021639414131641388 0.12333491444587708 0.01883947290480137
-0.04968201741576195 0.10580479353666306 -0.2830457091331482
-0.10995122790336609 0.04753192514181137 0.21008296310901642
0.03829682618379593 -0.09140391647815704 -0.03917913883924484
-0.008883579634130001 -0.09637577086687088 0.018305368721485138
0.05574661120772362 -0.08916565775871277 0.012228120118379593
-0.10891647636890411 0.05380512773990631 0.016414040699601173
-0.1099705845117569 -0.029984598979353905 0.05960363522171974
0.034275121986866 -0.10595791041851044 -0.040604367852211
-0.06103784963488579 0.11885297298431396 0.02342231571674347
-0.021118231117725372 -0.09259375184774399 0.009527003392577171
-0.0660795122385025 0.11526857316493988 0.07042050361633301
-0.007749199867248535 -0.05998699367046356 -0.3060110807418823
-0.04504181444644928 -0.09292798489332199 -0.03876008465886116
0.046284377574920654 -0.10829871892929077 0.21211135387420654
-0.018694011494517326 -0.09977876394987106 0.015765739604830742
0.07477302849292755 -0.07599322497844696 0.007075723260641098
-0.0030045921448618174 -0.11107335984706879 0.015483448281884193
-0.07281482964754105 0.009589437395334244 -0.007006465457379818
0.08765532821416855 -0.07976683229207993 -0.11103995144367218
-0.08066576719284058 -0.021855877712368965 -0.16899673640727997
-0.10486579686403275 0.04921823740005493 0.013902077451348305
-0.12244869768619537 0.060184113681316376 0.00985587015748024
-0.0819532573223114 -0.07519283145666122 -0.11958392709493637
-0.11491452157497406 -0.023444276303052902 0.07593901455402374
-0.11265936493873596 0.06320255994796753 -0.02005687542259693
-0.12078512459993362 0.02750455215573311 0.029353510588407516
-0.019411539658904076 -0.09495923668146133 0.01878439448773861
-0.10593841224908829 0.10364082455635071 0.10735420882701874
-0.02498449571430683 -0.09556083381175995 0.025496365502476692
-0.04550933465361595 -0.09689011424779892 0.37612617015838623
-0.0978785902261734 -0.05144151300191879 -0.0007729846984148026
-0.11650637537240982 0.021391499787569046 -0.00491250678896904
-0.016334660351276398 -0.10093207657337189 0.015790361911058426
0.10987848788499832 -0.07419103384017944 -0.10262905061244965
-0.08782292157411575 0.09683346748352051 0.08225283771753311
-0.0010405872017145157 -0.09255124628543854 -0.25115686655044556
-0.04792702570557594 -0.09348190575838089 -0.05262428894639015
-0.07807479798793793 -0.06592538952827454 -0.02325338125228882
-0.07290035486221313 0.1063583493232727 0.0640992522239685
-0.06047973036766052 0.14204150438308716 0.3014853298664093
0.08121650665998459 -0.08751943707466125 0.028968339785933495
-0.0911235436797142 0.1313932240009308 0.2440032958984375
-0.041818346828222275 0.12766395509243011 0.0810205265879631
0.10545612126588821 -0.06410075724124908 -0.00039733899757266045
0.06894861161708832 -0.08189505338668823 0.09384164214134216
-0.10867888480424881 -0.018212322145700455 0.054486922919750214
-0.11470391601324081 0.018600961193442345 0.0018683653324842453
-0.11499391496181488 0.013496442697942257 0.005645174533128738
-0.07614016532897949 0.07443589717149734 -0.14634668827056885
0.05380454659461975 -0.09271944314241409 -0.014312091283500195
0.03395380452275276 -0.09060011804103851 0.06740449368953705
0.046362265944480896 -0.08866837620735168 -0.010581646114587784
0.09850777685642242 -0.062447868287563324 0.392093300819397
-0.07572413235902786 0.06696276366710663 -0.16936567425727844
-0.08030062168836594 -0.0771884024143219 -0.031324006617069244
0.0953458696603775 -0.10522928088903427 0.32967373728752136
0.11727514863014221 -0.06477474421262741 -0.09850740432739258
-0.11108265817165375 0.10248525440692902 0.3433949649333954
-0.04032415524125099 0.1268061101436615 -0.1964551955461502
-0.11791978776454926 0.007929718121886253 0.005169812589883804
0.1565626710653305 -0.08210785686969757 0.29892697930336
-0.06794652342796326 -0.069501593708992 -0.03201008960604668
-0.07317091524600983 -0.0788981020450592 -0.039635069668293
-0.03541964292526245 -0.10341659933328629 -0.03741934522986412
-0.11544649302959442 0.0497981458902359 0.008765432983636856
0.035731833428144455 -0.09355189651250839 -0.09564913064241409
-0.057227157056331635 0.14946193993091583 -0.04692709445953369
0.01365400105714798 -0.11182156950235367 -0.037238020449876785
-0.0382867269217968 0.12975384294986725 0.05961167439818382
-0.07990212738513947 -0.07244382798671722 0.0590614378452301
-0.008577415719628334 -0.09079104661941528 0.012337766587734222
-0.018550321459770203 -0.10812500864267349 -0.11130344122648239
-0.07675839960575104 -0.0760536715388298 -0.02798171527683735
0.011408030055463314 -0.09913216531276703 0.01164763793349266
0.1228451281785965 -0.03960275277495384 0.05493606626987457
0.07576701790094376 -0.08246097713708878 -0.023461144417524338
-0.11200296133756638 0.010569940321147442 -0.0024816058576107025
-0.05292350798845291 -0.07818113267421722 -0.11547993123531342
-0.08142685145139694 -0.070575051009655 -0.029925718903541565
0.0645071417093277 -0.08667856454849243 0.06560411304235458
-0.09913681447505951 -0.03011273965239525 -0.22461962699890137
0.11174359172582626 -0.05562523752450943 0.0022230511531233788
-0.08546134829521179 -0.06287813186645508 0.0626806691288948
0.0336446538567543 -0.09703060984611511 -0.10287177562713623
-0.08199304342269897 -0.0720410868525505 -0.027430623769760132
0.0389719121158123 -0.08484559506177902 -0.31706473231315613
0.06175147742033005 -0.09142492711544037 -0.013064365833997726
-0.0127702746540308 0.0750313550233841 -0.38914814591407776
-0.05765469744801521 0.06960237771272659 -0.33420059084892273
0.01912202686071396 -0.09685306996107101 0.006021704524755478
0.013404550030827522 -0.10877791047096252 -0.06875300407409668
-0.07462014257907867 -0.06845510751008987 -0.020267395302653313
-0.085419200360775 -0.05686838924884796 0.07264799624681473
0.003728734329342842 -0.10063046216964722 0.010136488825082779
0.11074084043502808 -0.06348434090614319 0.04973661154508591
-0.06695719063282013 0.09966905415058136 0.15610207617282867
-0.005721846595406532 -0.09346690773963928 0.016225146129727364
-0.08431278169155121 -0.06259124726057053 0.06035400554537773
0.09767577052116394 -0.06031712889671326 -0.00377095490694046
-0.09009836614131927 -0.062379226088523865 0.07026153057813644
-0.07836783677339554 -0.0778864175081253 -0.026377122849225998
0.06673790514469147 -0.08888216316699982 0.14262405037879944
0.061892542988061905 -0.07972659170627594 0.31222108006477356
0.09969822317361832 -0.06096518039703369 -0.07122176885604858
-0.00766897015273571 -0.07292061299085617 -0.2282439023256302
-0.10837703198194504 -0.020112507045269012 0.06204036995768547
0.0846327617764473 -0.0746009349822998 -0.020739788189530373
-0.1214088723063469 0.03473236411809921 -0.08667285740375519
-0.108104407787323 0.013748005032539368 0.0022049536928534508
-0.04675762355327606 -0.09388957917690277 0.0823964774608612
0.017065413296222687 -0.11324512958526611 -0.22126315534114838
-0.08012032508850098 -0.0683913603425026 -0.031615495681762695
0.011462273076176643 -0.12005910277366638 0.011082407087087631
-0.07079781591892242 -0.07746201753616333 -0.027250347658991814
0.06567452102899551 -0.09476423263549805 -0.02303224243223667
0.10684618353843689 -0.09251471608877182 0.31305137276649475
-0.10498778522014618 0.07974276691675186 -0.04173560440540314
-0.11027383804321289 -0.029410159215331078 0.07210100442171097
-0.07883327454328537 0.014928881078958511 -0.12386992573738098
0.06025774031877518 -0.10100405663251877 -0.06569860130548477
-0.07900042086839676 -0.066087506711483 -0.02076151594519615
0.035625435411930084 -0.09762183576822281 -0.0346546396613121
-0.08019639551639557 -0.07446888089179993 -0.02765675261616707
-0.08436914533376694 0.12622277438640594 0.35517603158950806
0.04136631265282631 -0.08605000376701355 -0.018897108733654022
0.059132568538188934 -0.08559133857488632 -0.018951747566461563
-0.1277702897787094 0.051819078624248505 -0.05587736517190933
0.045597709715366364 -0.08500514179468155 0.013303853571414948
0.09387312084436417 -0.08763547241687775 0.2100146859884262
-0.018866965547204018 -0.10166646540164948 0.22151236236095428
0.08728498965501785 -0.08514183759689331 0.07537512481212616
0.08444993942975998 -0.10505153238773346 0.34898707270622253
0.09059806913137436 -0.0955715999007225 -0.07132478058338165
0.060794949531555176 -0.09107233583927155 -0.01580924354493618
-0.11112570762634277 0.1279035061597824 -0.07003775984048843
-0.031048409640789032 0.02082965336740017 -0.4007386863231659
0.006997955963015556 -0.09339329600334167 -0.16979219019412994
-0.1043071299791336 -0.04756263643503189 0.010315708816051483
0.02375822514295578 -0.09945634752511978 -0.024527914822101593
-0.11481930315494537 0.023551201447844505 0.021276118233799934
0.038377463817596436 -0.09098556637763977 0.009098909795284271
-0.06291785836219788 -0.07977986335754395 0.1858237087726593
-0.11382883787155151 0.037262074649333954 0.09826275706291199
-0.09149564057588577 -0.06730711460113525 0.034602418541908264
0.11034099012613297 -0.060884129256010056 0.009245405904948711
-0.07944119721651077 -0.07139424979686737 -0.01847868598997593
-0.07646460831165314 -0.025438247248530388 -0.25972098112106323
0.044899314641952515 -0.09450719505548477 -0.05322455242276192
0.046263884752988815 -0.08501756936311722 0.0771324634552002
-0.11245214194059372 0.06807972490787506 0.3004440665245056
-0.022983094677329063 -0.09918589890003204 0.020053109154105186
-0.07724390178918839 -0.061806969344615936 -0.02310342527925968
0.0640072450041771 -0.10797369480133057 0.282400906085968
-0.09758897125720978 0.10787246376276016 0.31799420714378357
-0.11579149961471558 0.021170977503061295 0.09564196318387985
-0.09116487950086594 0.024138163775205612 0.13908928632736206
0.1212320476770401 -0.07991526275873184 -0.07056955993175507
-0.07680907845497131 -0.07150667160749435 -0.030531950294971466
-0.03049297444522381 -0.07732430100440979 -0.14069613814353943
-0.02284863032400608 -0.09282363951206207 0.019329341128468513
-0.08534541726112366 -0.05777173489332199 0.06300295144319534
-0.05145489051938057 -0.07498173415660858 -0.2632054090499878
-0.11256395280361176 -0.04068250209093094 0.18876126408576965
-0.09043815732002258 -0.058130647987127304 -0.06534041464328766
0.06299053132534027 -0.08541645109653473 -0.017917057499289513
0.09772941470146179 -0.07036375254392624 -0.12549175322055817
0.08544576168060303 -0.08249763399362564 -0.01764787919819355
0.10590887069702148 -0.10296745598316193 0.3897058963775635
-0.009726306423544884 -0.09610828757286072 0.006755193695425987
0.04177210479974747 -0.08946671336889267 -0.0017307046800851822
-0.0841268002986908 0.08258020132780075 0.0961277037858963
0.10751890391111374 -0.09491278231143951 0.2321288287639618
0.048543162643909454 -0.08847945928573608 -0.030550308525562286
0.1056523323059082 -0.07118996977806091 0.10272122919559479
0.03390958905220032 -0.10888754576444626 0.06496583670377731
-0.11667109280824661 0.029384925961494446 0.019016318023204803
-0.09482534974813461 -0.05949978157877922 0.06898652017116547
-0.11423652619123459 0.010195981711149216 0.0011569708585739136
-0.013445612043142319 -0.10896444320678711 0.026181211695075035
0.06520652025938034 -0.08391544222831726 -0.013913515955209732
0.03368474915623665 -0.10007394105195999 -0.13543705642223358
0.08732964843511581 -0.05917415767908096 0.22841596603393555
-0.07325413078069687 -0.07577142864465714 -0.022844035178422928
-0.05300620198249817 0.13992050290107727 0.260117769241333
-0.0654301717877388 -0.08987818658351898 -0.0753234475851059
-0.0714866891503334 -0.10190944373607635 0.26052698493003845
-0.09060989320278168 0.10660840570926666 -0.015691928565502167
0.09955185651779175 -0.05681855231523514 -0.028457321226596832
-0.11618416011333466 0.01945936307311058 -0.0036714356392621994
-0.10897181928157806 0.04076140373945236 -0.06989334523677826
-0.08938578516244888 0.08616484701633453 0.09012900292873383
-0.07506730407476425 -0.07130652666091919 -0.03003045730292797
-0.11274752020835876 -0.022376572713255882 0.07497485727071762
-0.007346857339143753 -0.10888800024986267 0.17591798305511475
-0.11174878478050232 0.03269930183887482 0.02102810889482498
0.0667743980884552 -0.09263510257005692 -0.11528882384300232
0.10889433324337006 -0.08448292315006256 -0.25806063413619995
0.03844007849693298 -0.08929374814033508 0.1678437739610672
-0.05070090293884277 -0.08820022642612457 -0.05373871326446533
0.0629882737994194 -0.09228023141622543 -0.01970251277089119
-0.021988485008478165 -0.09660188853740692 0.018700340762734413
-0.11581867933273315 -0.03260962665081024 -0.028798747807741165
-0.10699412226676941 -0.029753459617495537 0.06233009323477745
-0.07734151184558868 0.11911818385124207 0.142597958445549
0.1567208468914032 -0.04835697263479233 -0.08816324174404144
-0.018806584179401398 -0.09525130689144135 0.014875611290335655
-0.09990659356117249 0.07845527678728104 0.14237985014915466
0.12929032742977142 -0.03678985685110092 0.05549955368041992
0.10827668011188507 -0.07147782295942307 -0.02464747056365013
-0.11436483263969421 0.018799709156155586 -0.007947071455419064
0.11971866339445114 -0.04234432056546211 -0.04156523942947388
-0.0023298803716897964 -0.09795407950878143 0.013511735945940018
-0.1151910275220871 0.01751554198563099 0.0020046522840857506
-0.07545892149209976 -0.07353690266609192 -0.031740445643663406
-0.1078919917345047 0.02265894040465355 -0.13370393216609955
0.0025682849809527397 -0.09522174298763275 0.013964971527457237
-0.08757415413856506 -0.07559080421924591 0.05374384671449661
-0.11757902055978775 0.02171877771615982 0.00542440265417099
-0.03796505182981491 0.12107619643211365 -0.14681528508663177
0.028973639011383057 -0.1093829944729805 0.09485383331775665
-0.09242440015077591 0.094382643699646 0.23557808995246887
-0.07220703363418579 -0.06855369359254837 -0.025779692456126213
-0.09434502571821213 -0.07956942915916443 0.32430416345596313
-0.06637631356716156 -0.08889226615428925 -0.11854823678731918
0.059568580240011215 -0.08292799443006516 0.1044725626707077
-0.06888554990291595 0.10046333074569702 0.00790121778845787
-0.07181346416473389 0.13215306401252747 0.410478413105011
-0.05728274583816528 -0.08236315846443176 0.21061117947101593
-0.07171456515789032 0.11865539848804474 0.13193587958812714
