-0.08009624481201172 0.09568317979574203 0.029919788241386414
-0.09418044984340668 -0.04862264543771744 -0.04077202081680298
-0.11464385688304901 -0.020005039870738983 0.14187726378440857
-0.11044735461473465 -0.01970841735601425 0.06015768274664879
0.05237770080566406 -0.08144713938236237 0.08738049119710922
-0.10980071127414703 0.0033412636257708073 0.0581233948469162
-0.10463201999664307 0.08186526596546173 0.12042127549648285
0.003856400027871132 0.33095017075538635 0.11505720019340515
0.021969439461827278 -0.059515614062547684 -0.2584432363510132
-0.02341434732079506 -0.09454979747533798 0.05241592600941658
0.07951758056879044 -0.0795278251171112 -0.11189381033182144
0.04554978758096695 -0.09377918392419815 -0.00945204496383667
-0.0907440036535263 0.03900160640478134 -0.22171348333358765
0.011896912008523941 -0.11460936814546585 -0.038493748754262924
-0.11734344810247421 0.07918362319469452 0.3198757767677307
0.20420555770397186 -0.07666908204555511 0.15060457587242126
-0.04020025581121445 0.12352705001831055 -0.1070743054151535
-0.005631801672279835 -0.09722931683063507 0.01992129161953926
-0.049272648990154266 -0.08998417109251022 0.12797176837921143
-0.11243627220392227 0.029856868088245392 0.07681214064359665
-0.070430226624012 -0.06412272155284882 0.3808363676071167
-0.029431257396936417 -0.11990328878164291 -0.0852307453751564
-0.10988162457942963 0.028744060546159744 0.07513909041881561
-0.12029881030321121 0.04950520396232605 0.24402396380901337
-0.05945754796266556 -0.09107900410890579 -0.11645550280809402
0.07446123659610748 -0.08599325269460678 0.0945534035563469
-0.08847261220216751 -0.050377532839775085 0.09587378054857254
-0.11059856414794922 0.024004509672522545 0.008988595567643642
0.0026631178334355354 -0.09561020880937576 0.014065859839320183
-0.11516974866390228 0.042685821652412415 0.053616754710674286
0.3233908414840698 0.022256895899772644 0.2158614695072174
0.08537207543849945 -0.07320902496576309 -0.03125642240047455
-0.09847812354564667 -0.04062552750110626 -0.0028507662937045097
-0.08408412337303162 -0.06079220026731491 -0.04350981116294861
-0.07757502794265747 0.11863236874341965 0.04022552818059921
-0.06326212733983994 -0.07076968997716904 -0.06932661682367325
-0.10719805955886841 -0.030037838965654373 0.06766002625226974
-0.028297141194343567 0.13232219219207764 0.12127237766981125
-0.03718699514865875 0.121344193816185 -0.14766250550746918
-0.09107107669115067 -0.059860095381736755 -0.04806104302406311
-0.10505443066358566 -0.011411663144826889 0.05208731070160866
-0.020343219861388206 -0.1049126386642456 0.21551799774169922
0.027972791343927383 -0.1029541864991188 0.08918441087007523
0.006761186756193638 -0.10584008693695068 -0.033839497715234756
-0.00926455482840538 -0.09411155432462692 0.014312855899333954
-0.10664555430412292 0.002651875140145421 0.020717838779091835
0.1219550371170044 -0.04353927820920944 0.009480848908424377
-0.10934892296791077 0.032665301114320755 0.07504309713840485
0.039121177047491074 -0.08726225048303604 0.012823869474232197
0.12196307629346848 -0.07018547505140305 -0.39028143882751465
0.14163990318775177 -0.04857293888926506 0.058058179914951324
0.07918211072683334 -0.06912674754858017 0.028606770560145378
-0.01082991436123848 -0.10778313875198364 0.03142211213707924
0.02018766850233078 -0.1108831837773323 0.3015742897987366
-0.08374221622943878 -0.06298485398292542 -0.03521639108657837
-0.11255542933940887 0.052177220582962036 0.008203725330531597
0.01953965798020363 -0.10203145444393158 0.12190146744251251
-0.10997135192155838 0.016383502632379532 0.02792154811322689
0.04321411997079849 -0.08274254202842712 0.03834737092256546
-0.07512425631284714 -0.06625789403915405 0.11189116537570953
0.05816862732172012 -0.08416344970464706 -0.072057344019413
-0.09395918995141983 0.10325108468532562 0.1622871309518814
-0.0035852156579494476 -0.10454630851745605 0.02149723842740059
-0.11190573871135712 0.04639396816492081 0.10979485511779785
-0.09968443214893341 0.020039528608322144 0.16741062700748444
-0.09490327537059784 -0.03842814266681671 0.00036105234175920486
0.004235101863741875 -0.0847654789686203 0.26385068893432617
-0.007386696524918079 -0.09766432642936707 0.015821367502212524
-0.09405742585659027 -0.05928931012749672 0.17103104293346405
0.04324660450220108 -0.0948982834815979 -0.10029774904251099
-0.0834532380104065 -0.0319027304649353 -0.341308057308197
-0.02340882644057274 -0.09822309017181396 0.01436866819858551
0.07926484197378159 -0.0789356529712677 -0.0990796685218811
0.05384311079978943 -0.08526782691478729 -0.023974929004907608
-0.010460643097758293 -0.10896701365709305 -0.05598720535635948
0.09032757580280304 -0.06632404029369354 -0.030980471521615982
0.10652077198028564 -0.024946901947259903 -0.15571820735931396
0.06141913682222366 -0.09486013650894165 0.176418736577034
-0.028543703258037567 -0.09356111288070679 0.01930561289191246
-0.08427610248327255 0.050534237176179886 -0.1237470954656601
-0.07718265801668167 -0.10272365808486938 0.07610958069562912
0.03873629495501518 -0.10638611018657684 -0.04068692773580551
-0.12317483872175217 -0.03607039153575897 0.373320609331131
0.04567078500986099 -0.11082371324300766 -0.037545979022979736
-0.11503323912620544 0.022337546572089195 0.02031724527478218
-0.07620562613010406 0.05888546630740166 -0.1862100064754486
0.10886140167713165 -0.029810739681124687 -0.18855157494544983
0.054569173604249954 -0.08202049881219864 -0.01645331270992756
-0.008481640368700027 -0.09893067926168442 0.029807396233081818
-0.008423864841461182 -0.10580070316791534 0.09602810442447662
-0.11387571692466736 0.02269807644188404 -0.10894749313592911
0.09446755051612854 -0.08021783083677292 0.21402089297771454
0.05673571303486824 -0.0909663662314415 -0.029691962525248528
-0.0006426973268389702 -0.103488489985466 0.024861928075551987
-0.013314742594957352 -0.09935250878334045 0.02592996135354042
-0.03399501368403435 -0.11802143603563309 -0.06655564904212952
0.09801708906888962 -0.06321083009243011 -0.02520555816590786
-0.10091220587491989 0.09159481525421143 -0.0033119916915893555
0.004431727342307568 0.10780874639749527 0.12843233346939087
-0.10699236392974854 0.082131028175354 0.16756844520568848
-0.0701058954000473 0.11218823492527008 -0.016448121517896652
0.08668272197246552 -0.07095415890216827 -0.04333379864692688
0.14014196395874023 -0.054643262177705765 -0.29088538885116577
0.04672092944383621 -0.0853412002325058 0.012339883483946323
-0.09867452085018158 -0.034444715827703476 -0.023274332284927368
0.07198528945446014 -0.09085384011268616 -0.07886326313018799
-0.08892147243022919 0.028906112536787987 -0.1714581400156021
0.09517066180706024 -0.06109807640314102 -0.028399989008903503
0.11715473979711533 -0.04554611071944237 -0.032079316675662994
0.07693888247013092 -0.06518615037202835 -0.03027357906103134
0.08492715656757355 -0.07094882428646088 -0.03765381500124931
0.1189216896891594 -0.03992588818073273 -0.13719594478607178
-0.06907302886247635 0.17057473957538605 -0.10660755634307861
-0.092805415391922 -0.05136951804161072 0.27764952182769775
-0.010254766792058945 -0.09562068432569504 0.022577481344342232
-0.11386053264141083 -0.045449499040842056 -0.0703887790441513
0.04507209360599518 -0.09058330953121185 -0.005545131862163544
-0.05331166833639145 -0.09127053618431091 0.0898844450712204
-0.02857283130288124 -0.10149261355400085 -0.07633579522371292
-0.11299237608909607 -0.025785161182284355 0.04188971966505051
0.09644877910614014 -0.05935155600309372 0.014728210866451263
0.07827137410640717 -0.09175190329551697 -0.03520376980304718
0.05939650535583496 -0.10007713735103607 0.04114174842834473
-0.09518299996852875 -0.03968195989727974 0.0035868557170033455
-0.08469438552856445 0.10936784744262695 0.22554421424865723
0.0616685152053833 -0.08965346962213516 -0.017600180581212044
-0.10517565906047821 -0.02557378262281418 0.045180775225162506
0.10404512286186218 -0.0632951557636261 -0.08951228857040405
-0.08560794591903687 -0.014764493331313133 0.06107621267437935
-0.002328469417989254 -0.11042273789644241 -0.12748010456562042
-0.09770585596561432 -0.004853425547480583 0.006652476266026497
0.02652912586927414 -0.10234169661998749 0.046458370983600616
-0.09636744111776352 -0.06615956872701645 -0.06403620541095734
-0.1139797568321228 0.07104630768299103 0.26454970240592957
-0.0717996284365654 0.06693623214960098 -0.22805236279964447
0.04172709584236145 -0.08737920224666595 0.01735163852572441
-0.0822874903678894 -0.05824001878499985 -0.02667790651321411
-0.028502944856882095 -0.08557907491922379 0.21611559391021729
-0.10942817479372025 -0.043966613709926605 -0.03099724091589451
-0.08039431273937225 -0.06691407412290573 -0.0581786222755909
-0.05048466473817825 -0.09803223609924316 0.11865910142660141
0.0487784743309021 -0.08724800497293472 0.0036662686616182327
-0.0036948248744010925 -0.1007617861032486 0.028138715773820877
-0.09937384724617004 -0.002916575875133276 0.08724319189786911
-0.08530987054109573 -0.0588429756462574 -0.028367163613438606
-0.11219070106744766 0.08152731508016586 -0.2914821207523346
-0.07615789771080017 -0.07893596589565277 0.0671723335981369
-0.08054506778717041 0.18499909341335297 -0.264844685792923
0.09805411100387573 -0.05852288007736206 -0.022877728566527367
-0.105132557451725 -0.015703681856393814 0.056222107261419296
-0.086004838347435 -0.046437423676252365 0.04342963919043541
-0.10471528023481369 0.04748949036002159 0.1373136341571808
0.05048626661300659 -0.08538053184747696 0.011056896299123764
0.05536448583006859 -0.06735648214817047 0.1604597270488739
-0.002807796001434326 -0.09808349609375 -0.04376160725951195
-0.07747790962457657 0.12174413353204727 -0.10243920981884003
-0.08525142073631287 -0.0784740224480629 -0.07116181403398514
-0.008020959794521332 -0.09891742467880249 0.016061224043369293
0.11620806902647018 -0.029782220721244812 -0.09079176187515259
-0.09613914787769318 -0.03353431820869446 -0.02401003986597061
0.1028498113155365 -0.06314656138420105 -0.02264968678355217
-0.12441401928663254 0.054239556193351746 0.011035878211259842
0.029393404722213745 -0.09367622435092926 0.013842396438121796
0.16076253354549408 0.013140708208084106 0.012005895376205444
0.2094951719045639 -0.08435920625925064 0.3913463056087494
-0.06411267817020416 0.12583333253860474 -0.013582877814769745
-0.042425621300935745 -0.0925525650382042 0.1588154137134552
-0.08367293328046799 -0.07535803318023682 -0.03214716166257858
-0.09056860953569412 -0.060647934675216675 -0.04327137768268585
-0.10679704695940018 0.05172378942370415 0.11975136399269104
-0.09162028133869171 -0.05464094877243042 -0.05988302081823349
0.21681737899780273 -0.025616377592086792 0.3709770739078522
-0.11855074018239975 0.030348455533385277 0.09082790464162827
-0.08611516654491425 0.2049444019794464 0.2610812485218048
-0.11603353172540665 0.009764837101101875 0.023848626762628555
-0.08010842651128769 0.01618378423154354 -0.3002663254737854
0.042599279433488846 -0.125820592045784 0.41403377056121826
-0.0795363336801529 -0.07128968834877014 -0.03587727248668671
0.019083477556705475 -0.03154050558805466 -0.42081838846206665
0.07350431382656097 -0.07553407549858093 -0.15383003652095795
-0.08043424785137177 0.08455906808376312 -0.09794238209724426
-0.09824579954147339 -0.042781271040439606 -0.009778520092368126
-0.08849804103374481 0.022636443376541138 0.0813424289226532
-0.11332879960536957 0.019847752526402473 -0.008416686207056046
-0.09056520462036133 0.060119517147541046 -0.1355695128440857
0.11414411664009094 -0.06073232740163803 -0.18279096484184265
0.029717091470956802 -0.0980125442147255 0.06405133754014969
-0.021743807941675186 -0.08892868459224701 -0.15060926973819733
0.004238903522491455 -0.1219668984413147 -0.06691186130046844
0.10194618254899979 -0.05774671956896782 -0.021642861887812614
0.1991744339466095 -0.06975939869880676 0.11108338832855225
0.07950004935264587 -0.07302991300821304 -0.04206370562314987
0.005869552493095398 -0.10395488888025284 0.02495194412767887
0.04639706015586853 -0.08042245358228683 0.007109936326742172
-0.004491064231842756 0.27853432297706604 -0.05229082703590393
-0.11933378130197525 0.07112227380275726 -0.11818827688694
-0.07516646385192871 0.07438264787197113 0.052244413644075394
0.132322296500206 -0.028816742822527885 -0.04650670289993286
-0.11008889973163605 -0.016359666362404823 0.05603158101439476
-0.08886563032865524 -0.07227779924869537 -0.04657881706953049
0.07223816215991974 -0.06854744255542755 -0.2031380832195282
0.0498979389667511 -0.10453002899885178 -0.11676308512687683
0.016338523477315903 -0.10198646783828735 -0.011290490627288818
-0.10001660883426666 -0.06549584865570068 0.08439575135707855
-0.08261328190565109 -0.056600578129291534 0.08658930659294128
0.10227534174919128 -0.05959481745958328 0.0033449679613113403
-0.10355772823095322 0.012638241052627563 0.021237380802631378
0.0509653277695179 -0.07839412242174149 0.008020766079425812
-0.04490646719932556 0.1324428915977478 -0.05704057961702347
-0.11943751573562622 0.013180176727473736 0.016349438577890396
-0.0885968878865242 0.10729136317968369 0.08135761320590973
0.05420681834220886 -0.08142434060573578 -0.04735267907381058
-0.09149184823036194 0.10165804624557495 -0.01988278143107891
-0.10869741439819336 0.017113590613007545 0.001146005466580391
0.02510080859065056 -0.09785502403974533 0.005465898662805557
-0.0291083212941885 -0.05502404645085335 0.3019239604473114
-0.08936557173728943 -0.08321099728345871 -0.033429212868213654
-0.01801704615354538 -0.06198810040950775 0.27068763971328735
-0.1057530865073204 0.011460155248641968 0.050631389021873474
-0.04803064465522766 -0.0998360887169838 -0.24324624240398407
-0.10377060621976852 -0.015530215576291084 0.048033859580755234
-0.08172956109046936 0.11296293139457703 0.05974593758583069
-0.0215902216732502 -0.09806035459041595 0.020453162491321564
-0.07871907949447632 0.0009840310085564852 -0.4250256419181824
-0.09842459857463837 -0.04403998702764511 0.011029228568077087
-0.06374049931764603 -0.09278899431228638 -0.07281933724880219
-0.10961661487817764 -0.031047947704792023 -0.026842061430215836
0.03189936280250549 -0.09487341344356537 -0.04000617563724518
-0.1103261411190033 0.04686716943979263 0.058925967663526535
-0.0731072947382927 -0.08504387736320496 -0.11686425656080246
-0.09211316704750061 -0.005578338634222746 0.01878974586725235
0.023382768034934998 -0.09535709768533707 0.36285802721977234
0.04176515340805054 -0.09013039618730545 0.01617167703807354
0.046157319098711014 -0.09116692841053009 -0.010985594242811203
-0.011283349245786667 -0.12297960370779037 0.3558421730995178
0.04216684028506279 -0.09669666737318039 -0.015281593427062035
0.009415490552783012 -0.12467734515666962 -0.10048709064722061
0.0969834178686142 -0.060749687254428864 -0.026376957073807716
-0.08804727345705032 -0.05833831802010536 -0.05142303556203842
-0.13567613065242767 0.04299686849117279 0.3702603578567505
0.06899335235357285 -0.06867464631795883 0.3548229932785034
0.10257948189973831 -0.06350652873516083 -0.024324053898453712
-0.04726218059659004 0.13191962242126465 0.26778537034988403
-0.02000371553003788 -0.0989954024553299 0.01774858683347702
-0.11193166673183441 0.01582845114171505 0.012710105627775192
-0.07931205630302429 -0.06068146973848343 -0.026256317272782326
-0.036123692989349365 0.1007196381688118 -0.27666768431663513
0.1067207008600235 -0.054589658975601196 -0.07990992069244385
0.09143849462270737 -0.05984579771757126 0.04930345341563225
0.04472725838422775 -0.09482031315565109 -0.006201479583978653
-0.11563371866941452 -0.03559691458940506 0.3211895823478699
-0.014421735890209675 -0.09513627737760544 0.017663907259702682
0.07296322286128998 -0.06294236332178116 0.05025476589798927
-0.023028982803225517 -0.0958872064948082 0.021488312631845474
-0.11008265614509583 0.008907120674848557 0.013209233991801739
-0.12221188843250275 0.020486745983362198 -0.006733473390340805
0.35747718811035156 0.023727549239993095 0.4195048213005066
-0.09210767596960068 -0.0566389337182045 -0.052057527005672455
-0.07328445464372635 0.07267151772975922 -0.3245891332626343
-0.06899562478065491 -0.007038109004497528 0.11898587644100189
-0.0489032082259655 -0.09367653727531433 0.08496017754077911
0.0004221322014927864 -0.11108945310115814 0.12956254184246063
-0.10173231363296509 0.04312949255108833 0.05496002733707428
-0.08526889979839325 -0.06081444025039673 -0.026214923709630966
0.05514248460531235 -0.09581488370895386 -0.039120160043239594
0.06563912332057953 -0.09118565171957016 -0.0207584947347641
-0.1141936331987381 -0.007495321333408356 -0.01058153249323368
-0.09249040484428406 -0.06012413278222084 -0.04542874917387962
-0.08029148727655411 -0.059770047664642334 -0.029209213331341743
-0.06001743674278259 0.118407242000103 0.08469409495592117
0.07435378432273865 -0.07246190309524536 -0.038743358105421066
-0.1000695675611496 0.01498400792479515 0.0665801614522934
-0.028081044554710388 -0.10316317528486252 -0.06626316905021667
0.09599911421537399 -0.05727972835302353 0.0015423838049173355
-0.014679236337542534 -0.10653923451900482 -0.3437204360961914
0.05130757391452789 -0.09379628300666809 -0.016030140221118927
-0.09512235969305038 0.07358107715845108 0.02033083699643612
-0.08592625707387924 -0.06849468499422073 0.038819633424282074
-0.02601374313235283 -0.10832516849040985 0.018803613260388374
-0.11415179818868637 -0.02881072647869587 -0.1298709362745285
-0.11937295645475388 0.0641539916396141 -0.017823869362473488
-0.017842736095190048 -0.09714940190315247 0.015841182321310043
-0.06959306448698044 0.09377577900886536 -0.02098670043051243
0.09200482070446014 -0.06251636892557144 -0.03195832297205925
-9.72989946603775e-05 0.05346132814884186 -0.420158326625824
-0.0755615159869194 -0.06999408453702927 -0.03196876123547554
0.09628472477197647 -0.06603844463825226 -0.014172408729791641
-0.06054167449474335 -0.07213187217712402 -0.3115071952342987
0.0012950543314218521 -0.09585947543382645 0.009604410268366337
0.13461856544017792 -0.0708184689283371 -0.23159833252429962
0.11069373786449432 -0.044366512447595596 0.0050309449434280396
-0.0036381231620907784 -0.09618993103504181 0.011681396514177322
-0.09760710597038269 0.08565183728933334 -0.013059718534350395
0.07024556398391724 -0.07142293453216553 -0.0025046411901712418
-0.1291787028312683 -0.012008562684059143 0.407632052898407
0.040705420076847076 -0.10374510288238525 -0.03706389665603638
0.030274197459220886 -0.11662979423999786 -0.0475698783993721
-0.051074136048555374 -0.08790115267038345 -0.059003859758377075
0.058726727962493896 -0.08950384706258774 -0.025154579430818558
-0.08940375596284866 -0.04272223263978958 -0.020487714558839798
-0.00024665147066116333 -0.10690866410732269 0.019995469599962234
-0.13150320947170258 -0.011324821040034294 -0.09885171800851822
-0.025559013709425926 -0.09288562834262848 0.02262875810265541
0.0488569512963295 -0.08065556734800339 0.0463436059653759
-0.11034943908452988 0.017938993871212006 -0.0015975725837051868
0.030232969671487808 -0.11194606125354767 -0.11872878670692444
-0.015410216525197029 -0.10358958691358566 -0.049596793949604034
-0.0006112046539783478 -0.09179690480232239 0.013495612889528275
-0.10417324304580688 -0.03631051257252693 -0.027797648683190346
-0.08667381852865219 -0.057894185185432434 0.07923547178506851
-0.10723336786031723 0.01536653283983469 0.005120465531945229
0.03253474086523056 -0.10631752014160156 0.016468115150928497
-0.11368875205516815 0.022038182243704796 0.02551911026239395
-0.024599336087703705 -0.10224483907222748 0.3341362476348877
-0.08059364557266235 -0.07861151546239853 -0.1149400845170021
-0.07159197330474854 -0.08536556363105774 0.4116082787513733
0.018278799951076508 -0.09991414099931717 0.004119003191590309
0.10605505108833313 -0.05570894107222557 -0.009155506268143654
0.06483333557844162 -0.08356021344661713 -0.06241903081536293
-0.08379773050546646 -0.06553575396537781 -0.0351567305624485
-0.10315529257059097 -0.03257458657026291 -0.029858317226171494
-0.11071539670228958 0.011312216520309448 0.010335488244891167
0.1436695158481598 -0.06677836924791336 0.2534755766391754
0.022653969004750252 -0.08658012747764587 0.10512898117303848
-0.08221713453531265 0.0033455844968557358 -0.1940678507089615
-0.10344740748405457 0.021547755226492882 0.08153282105922699
-0.1164751797914505 0.05562376230955124 0.004285493865609169
-0.03276078402996063 0.10523717105388641 -0.1992228776216507
0.11559583991765976 -0.056334540247917175 0.18591398000717163
0.07168866693973541 -0.006318253464996815 -0.4157527983188629
0.09642183035612106 -0.06938761472702026 0.0070195673033595085
-0.00011778157204389572 -0.10776643455028534 0.024123813956975937
-0.10340197384357452 0.015789562836289406 0.016057420521974564
-0.020524341613054276 -0.09961589425802231 0.01874944195151329
-0.07853078842163086 -0.07113505899906158 0.05324219539761543
-0.10518579185009003 0.019832370802760124 0.08942651748657227
-0.088275246322155 -0.05756532400846481 -0.03831861540675163
-0.11625310033559799 -0.019171547144651413 -0.062479980289936066
-0.11064480245113373 0.011495516635477543 0.00680902972817421
-0.08427555114030838 -0.060707978904247284 -0.03643622249364853
-0.08678967505693436 -0.06447477638721466 -0.04077678918838501
0.08192300796508789 -0.06805319339036942 -0.03749321028590202
0.0640888437628746 -0.08836860209703445 -0.019372666254639626
0.034891627728939056 -0.08036185055971146 -0.15825948119163513
0.11598385125398636 -0.062471456825733185 -0.03354799002408981
-0.008064847439527512 -0.10368183255195618 0.020224060863256454
0.1138039380311966 -0.04793190583586693 0.0025710545014590025
-0.1283641755580902 0.0031286943703889847 0.34164825081825256
0.08988522738218307 -0.07963280379772186 -0.007827196270227432
-0.003004566766321659 -0.10226196050643921 0.02754710242152214
-0.09794056415557861 -0.038398709148168564 -0.021309206262230873
0.04350309446454048 -0.11212405562400818 0.12177059054374695
0.11969512701034546 -0.055345568805933 -0.07862584292888641
0.10327674448490143 -0.06129864603281021 -0.008298756554722786
0.06109781563282013 -0.08901584148406982 -0.02035340666770935
-0.1107267290353775 0.014302982948720455 0.004538416862487793
0.0688367635011673 -0.09374699741601944 -0.016659319400787354
-0.07974079996347427 -0.06845533847808838 -0.03134317696094513
0.017416825518012047 -0.09526041150093079 0.09687703847885132
0.18105122447013855 -0.023135066032409668 -0.13305717706680298
-0.11851656436920166 0.013262420892715454 0.18776796758174896
-0.024294143542647362 -0.10292407870292664 0.05479130148887634
-0.026108555495738983 -0.11115362495183945 -0.13900427520275116
-0.07786072790622711 -0.06174921244382858 0.058881551027297974
-0.09448662400245667 0.08287319540977478 0.428496778011322
-0.06461415439844131 -0.079755038022995 0.2871154546737671
-0.11191162467002869 0.014080454595386982 0.0019082208164036274
-0.12810440361499786 0.055302686989307404 0.3872565031051636
0.08054724335670471 -0.06961614638566971 -0.03486320376396179
-0.03323253244161606 -0.10824514925479889 0.06274788826704025
-0.1085767075419426 0.02040260098874569 0.007022085599601269
-0.09961120039224625 -0.022969026118516922 -0.04873092845082283
-0.019668590277433395 -0.09647281467914581 0.016867104917764664
-0.08144012838602066 -0.05694619566202164 -0.03615015745162964
-0.11047448217868805 -0.039910733699798584 0.011749833822250366
0.0033475784584879875 -0.09873763471841812 -0.2689440846443176
-0.09807294607162476 0.0675225630402565 -0.06648530066013336
-0.013649359345436096 -0.04722415655851364 -0.32050785422325134
-0.09999597817659378 -0.045310504734516144 0.018824299797415733
-0.10530269145965576 0.025262849405407906 0.07483448088169098
-0.0952804759144783 -0.041572973132133484 -0.024362031370401382
-0.10532128065824509 0.03800808638334274 -0.0431072972714901
-0.11379951238632202 0.03836126998066902 -0.008266650140285492
0.049588821828365326 -0.0832967609167099 -0.006651364266872406
-0.08860784024000168 -0.06461676210165024 -0.13964161276817322
-0.11763311177492142 0.013302315026521683 0.021520735695958138
-0.1117904931306839 0.024742644280195236 0.07367974519729614
-0.08312350511550903 0.09571985900402069 0.04767336696386337
0.062212929129600525 -0.08550762385129929 -0.01602335274219513
-0.08015237003564835 -0.06931503862142563 -0.03266112506389618
0.06423626095056534 -0.08338723331689835 -0.006964575499296188
0.11071203649044037 -0.05018210411071777 -0.004663456231355667
-0.10281848907470703 0.08376433700323105 0.07374311983585358
-0.07907343655824661 -0.06347717344760895 -0.034053776413202286
-0.09143052995204926 0.08746100962162018 -0.048205651342868805
-0.09752297401428223 -0.04273499175906181 0.008373571559786797
-0.1109226644039154 0.025403780862689018 0.0012715235352516174
0.01970735751092434 -0.0845947116613388 0.20173460245132446
0.10721336305141449 -0.05902986228466034 -0.002335226396098733
0.07626501470804214 -0.07610101252794266 0.009886195883154869
-0.10099082440137863 0.10395866632461548 0.2963559031486511
0.10888601839542389 -0.060159794986248016 -0.10861074924468994
0.08821050822734833 -0.05190945044159889 -0.0632992833852768
-0.050713010132312775 -0.09558340162038803 0.06661812216043472
0.030042938888072968 0.009695172309875488 -0.519229531288147
0.08363065123558044 -0.06716874241828918 -0.03704310208559036
0.08143143355846405 -0.0706525668501854 -0.03440915793180466
0.01777053438127041 -0.09596958756446838 -0.03682275861501694
-0.08403415977954865 -0.0686987042427063 0.049195297062397
-0.03046085312962532 -0.10035797953605652 0.4221769869327545
-0.004244264215230942 -0.09911656379699707 0.023705366998910904
-0.11853606253862381 0.03895930200815201 0.04748549312353134
-0.11200933158397675 -0.015379282645881176 0.057243794202804565
0.008287220261991024 -0.09740594029426575 -0.07419879734516144
0.10267185419797897 -0.043844375759363174 -0.1477239429950714
0.05580435320734978 -0.11521756649017334 -0.04712393507361412
-0.09462989121675491 -0.05722000449895859 0.05969942361116409
-0.10871028155088425 0.010434071533381939 -0.14223712682724
-0.10683584958314896 0.010366907343268394 0.007887225598096848
0.0983034297823906 -0.06131915748119354 7.873028516769409e-05
-0.07827289402484894 -0.06934916973114014 -0.021647579967975616
-0.06765327602624893 0.12664565443992615 0.024764640256762505
-0.059715136885643005 -0.09627360105514526 -0.18356287479400635
-0.05512170493602753 0.10935178399085999 -0.1573818176984787
-0.08920756727457047 0.08377239853143692 0.03718750551342964
-0.07269971817731857 -0.08144860714673996 0.024210315197706223
-0.10362455248832703 -0.04218136891722679 -0.02358400821685791
-0.09756409376859665 -0.04188088700175285 0.013433761894702911
-0.07791578024625778 -0.0621786005795002 -0.03615221008658409
-0.11740029603242874 0.017454015091061592 0.25975093245506287
-0.1040789932012558 -0.05308268964290619 -0.12043202668428421
-0.05985371768474579 0.09645451605319977 -0.17574578523635864
0.0753994733095169 -0.05994292348623276 0.09039027988910675
-0.10588521510362625 -0.027223359793424606 -0.03234807401895523
-0.06005120649933815 0.12993668019771576 0.17069926857948303
-0.08483242988586426 0.1003735139966011 -0.07051035761833191
-0.10308262705802917 -0.03582528978586197 -0.05350782722234726
-0.028490357100963593 -0.10175137221813202 0.08630503714084625
-0.12768366932868958 0.04661261662840843 0.35749518871307373
-0.06800347566604614 -0.08404117822647095 -0.041510749608278275
0.06686198711395264 -0.10766138136386871 -0.03082636371254921
-0.11084403097629547 0.08264105021953583 0.14690536260604858
-0.03801505267620087 -0.05461584031581879 -0.16428455710411072
0.07177658379077911 -0.09054335206747055 -0.03914421796798706
-0.08447438478469849 -0.06878233700990677 -0.03381120413541794
0.04594480246305466 -0.07729717344045639 0.4013899564743042
-0.04715390130877495 0.13867752254009247 0.019539058208465576
-0.08254720270633698 -0.06592997163534164 0.04676227644085884
-0.1020943820476532 -0.039923377335071564 -0.024687351658940315
-0.08087950199842453 -0.057461194694042206 -0.055625058710575104
0.0435938835144043 -0.06829798221588135 0.12778779864311218
-0.0562024787068367 0.11636444181203842 -0.08755730092525482
-0.07104402035474777 -0.052105460315942764 0.05118335038423538
0.04839614778757095 -0.08943657577037811 -0.06054295599460602
0.11254626512527466 -0.01954968459904194 0.06292074173688889
-0.07754256576299667 -0.06416872143745422 -0.032527726143598557
-0.09387635439634323 -0.05903202295303345 -0.04902217164635658
0.03611362725496292 -0.09320250153541565 0.011148125864565372
0.10592013597488403 -0.06041231006383896 0.007452197372913361
0.10378238558769226 -0.0662568137049675 -0.0035732537508010864
0.09500931948423386 -0.05896705016493797 -0.0020487047731876373
0.1824742555618286 -0.03616967052221298 0.18318593502044678
0.04312695190310478 -0.10503217577934265 -0.26033294200897217
0.03615727648139 -0.09655731171369553 -0.13134512305259705
-0.08159425109624863 -0.06611670553684235 -0.029846657067537308
-0.10405182838439941 0.05672401934862137 -0.009875698015093803
0.04769586771726608 -0.09714770317077637 0.016695871949195862
0.06977078318595886 -0.09183130413293839 0.06654569506645203
-0.0397859662771225 -0.10021764039993286 0.14226195216178894
0.06236891448497772 -0.10664158314466476 0.21307633817195892
-0.09888919442892075 -0.03377459943294525 0.004075708799064159
-0.10674571245908737 0.047987937927246094 0.00743318535387516
-0.08315296471118927 -0.06043536216020584 -0.029597772285342216
0.00013194791972637177 -0.0977136567234993 0.017751339823007584
0.08191592991352081 -0.029423914849758148 -0.2695344090461731
-0.007491119205951691 -0.10737554728984833 0.032116882503032684
0.038979120552539825 -0.10953021049499512 -0.09727892279624939
0.10071948170661926 -0.0586586520075798 -0.027011195197701454
-0.07535377144813538 0.04623294994235039 -0.04274711012840271
-0.04756182059645653 -0.0886002779006958 0.12202757596969604
0.11112131923437119 -0.029711272567510605 0.006611581891775131
-0.11248095333576202 0.01285533607006073 0.08267981559038162
-0.08793026953935623 -0.06193934381008148 -0.05241250619292259
-0.1140027567744255 0.05236046388745308 0.02654905617237091
-0.006280341185629368 0.04322922229766846 0.40674126148223877
-0.11164446920156479 0.024005401879549026 0.022237256169319153
-0.013388650491833687 -0.09607820957899094 0.019227636978030205
0.08783222734928131 -0.08459240943193436 0.17830008268356323
-0.11807859688997269 0.0018796268850564957 -0.28055137395858765
-0.09630412608385086 -0.058059632778167725 -0.1795421838760376
-0.10168927907943726 -0.03745296224951744 0.0874413251876831
-0.09029430150985718 -0.05073200538754463 -0.045901618897914886
-0.11273788660764694 0.07093261927366257 0.18451370298862457
0.09415145218372345 -0.05170013755559921 -0.00506054051220417
-0.09951084107160568 -0.047928713262081146 0.008992808870971203
-0.11189649254083633 0.06408470124006271 0.07038821280002594
-0.01242018397897482 -0.12779369950294495 0.13964997231960297
-0.00015087705105543137 -0.06806016713380814 -0.15455304086208344
0.11647292971611023 -0.06448730081319809 -0.1180209293961525
-0.08246342837810516 -0.0625142976641655 0.044605620205402374
0.11603765934705734 -0.030475251376628876 0.14298711717128754
-0.013334385119378567 -0.09784827381372452 0.022623972967267036
-0.10802210867404938 -0.054908037185668945 0.20806223154067993
-0.01063639484345913 -0.10613512247800827 0.019347460940480232
-0.114951953291893 0.04698731377720833 -0.03242478892207146
-0.015564830973744392 -0.09704360365867615 0.01235615648329258
-0.0715535506606102 0.10562778264284134 0.13062703609466553
-0.11157868057489395 0.0009506233036518097 -0.0027030054479837418
0.10991282761096954 -0.05120395869016647 0.09615857899188995
0.03773513063788414 -0.09622731804847717 -0.041245292872190475
-0.11198306083679199 -0.01883603073656559 0.05486983060836792
0.026509488001465797 -0.10894027352333069 0.172493577003479
0.08194313943386078 -0.06609716266393661 0.08748538792133331
-0.10985279083251953 0.02006894163787365 -0.0034862644970417023
0.04465106874704361 -0.09574514627456665 -0.0006287898868322372
-0.08421343564987183 -0.06354472041130066 0.15030139684677124
-0.11161501705646515 0.021138176321983337 0.002304092049598694
-0.010362420231103897 -0.1013031080365181 0.059878744184970856
0.042119015008211136 -0.09295906126499176 -0.01252784114331007
-0.10894431173801422 0.07734078168869019 0.2296913117170334
0.0037035588175058365 0.3909313678741455 0.39126160740852356
0.06623027473688126 -0.08635532855987549 0.3174164593219757
0.10792241245508194 -0.04844356328248978 0.005285278894007206
-0.018098196014761925 -0.10369139164686203 0.029625194147229195
-0.03890286758542061 0.13222184777259827 0.1192241758108139
-0.05515158548951149 0.14338506758213043 0.07740326225757599
-0.12635861337184906 0.018771881237626076 0.2805136442184448
-0.11182107031345367 0.10267972946166992 0.3642269968986511
-0.10260279476642609 0.06055552512407303 -0.01744944602251053
-0.02600046619772911 0.12468670308589935 -0.03676052391529083
-0.05568031221628189 0.09325911849737167 -0.1963426023721695
-0.10341979563236237 0.09002907574176788 0.19081524014472961
0.015996932983398438 -0.10634245723485947 -0.005056377500295639
-0.024768345057964325 -0.0944375991821289 0.01698416844010353
0.04858202487230301 -0.09274014830589294 -0.00901525653898716
-0.09406565874814987 0.07865218818187714 0.003840073011815548
-0.1070711761713028 -0.0003662947565317154 0.052221883088350296
0.05183342099189758 -0.09030424058437347 -0.02209365926682949
-0.06860277056694031 0.11102396994829178 0.0410839319229126
-0.006319206673651934 -0.09516007453203201 0.014962304383516312
-0.0836077481508255 0.09285011142492294 0.0013195648789405823
0.05637199431657791 -0.08125213533639908 -0.11696530133485794
-0.08945702016353607 -0.06353496760129929 -0.02931271493434906
0.014231202192604542 -0.10289648175239563 0.2321653664112091
-0.018329041078686714 -0.1034185141324997 0.01713484153151512
0.0678931400179863 -0.08719459921121597 0.0022581610828638077
0.011379655450582504 -0.10873869061470032 0.018953729420900345
-0.08571060001850128 0.016740331426262856 4.367530345916748e-05
0.1304667890071869 -0.032449327409267426 -0.09063144028186798
-0.09941297769546509 -0.019706053659319878 -0.12324593961238861
-0.10156888514757156 0.04572364687919617 0.06392920017242432
-0.10007958114147186 0.07405508309602737 -0.012907324358820915
-0.07848931849002838 -0.04791866987943649 -0.023744402453303337
-0.11357716470956802 -0.02783021330833435 0.06477120518684387
-0.11165627837181091 0.04770650714635849 0.003569291904568672
-0.11134294420480728 0.012584337964653969 0.03065357357263565
-0.015998411923646927 -0.10330908000469208 0.019107315689325333
-0.07860444486141205 0.1495765894651413 0.12913653254508972
-0.00546453520655632 -0.09721755981445312 0.01530184131115675
-0.013987405225634575 -0.0955841988325119 0.38695228099823
-0.10015013068914413 -0.046772364526987076 0.0001621842384338379
-0.11234193295240402 0.010652202181518078 0.03116367571055889
0.002218654379248619 -0.10642848908901215 0.007441085763275623
0.11432188749313354 -0.049247678369283676 -0.06572163105010986
-0.06394866108894348 0.12758523225784302 0.06694206595420837
0.02134714648127556 -0.1144554615020752 -0.20664165914058685
-0.05492149293422699 -0.09153550118207932 -0.04979158937931061
-0.07026760280132294 -0.06339013576507568 -0.030395284295082092
-0.09903976321220398 0.09025894105434418 0.03453560173511505
-0.07542698830366135 0.1308671534061432 0.3202486038208008
-0.011306029744446278 -0.10430269688367844 0.10386869311332703
-0.10168742388486862 0.09953305125236511 0.1907757967710495
-0.06637141108512878 0.11477473378181458 0.06674176454544067
0.10188205540180206 -0.07257390022277832 -0.014877274632453918
0.03230414167046547 -0.09172987192869186 0.1132752075791359
-0.10535410046577454 -0.022842517122626305 0.04846668243408203
-0.11276029050350189 0.01713257096707821 0.021406210958957672
-0.11105554550886154 -0.0046066585928201675 0.019672976806759834
-0.09729494899511337 0.05787721648812294 -0.14890137314796448
0.040945835411548615 -0.09501086920499802 -0.005534535273909569
0.010487077757716179 -0.09544628858566284 -0.00946638360619545
0.06010576710104942 -0.08582494407892227 -0.017835114151239395
0.0956357941031456 -0.033359117805957794 0.3069944381713867
-0.07412171363830566 0.0576915517449379 -0.14680905640125275
-0.08233979344367981 -0.05963170900940895 -0.02688009850680828
0.13501062989234924 -0.08033350110054016 0.346749484539032
0.11707526445388794 -0.04103424400091171 -0.055406343191862106
-0.09429777413606644 0.15823255479335785 0.38661399483680725
-0.07617269456386566 0.17527085542678833 -0.18310022354125977
-0.11277307569980621 0.011705661192536354 0.00462416373193264
0.2007611095905304 -0.0967106968164444 0.2643342912197113
-0.08342766761779785 -0.06547698378562927 -0.028266727924346924
-0.0946505218744278 -0.061085425317287445 -0.04679344594478607
-0.058680254966020584 -0.10172306001186371 -0.047249455004930496
-0.10881762951612473 0.022050175815820694 0.015199445188045502
0.014752242714166641 -0.09742746502161026 -0.11889375746250153
-0.06865343451499939 0.15806491672992706 -0.03762845695018768
-0.027874594554305077 -0.11351542174816132 -0.06494360417127609
-0.03154681622982025 0.1310592144727707 0.04352037236094475
-0.07768489420413971 -0.0683007687330246 0.05655992031097412
-0.020050356164574623 -0.1013827994465828 0.035819750279188156
-0.024406488984823227 -0.11006145924329758 -0.11085325479507446
-0.10139184445142746 -0.02714068442583084 -0.028346657752990723
0.013491606339812279 -0.09077054262161255 0.032859306782484055
0.23019160330295563 -0.002711145207285881 0.05275193601846695
0.09869854152202606 -0.05783959478139877 -0.019162297248840332
-0.11087094247341156 0.018994983285665512 0.02056264318525791
-0.08656822144985199 -0.058965470641851425 -0.04716651141643524
-0.08813493698835373 -0.06301400810480118 -0.03766448795795441
0.07626551389694214 -0.06634964793920517 0.07223739475011826
-0.06898486614227295 -0.051412925124168396 -0.2190505415201187
0.11096952855587006 -0.04485195502638817 0.0036310572177171707
-0.08031883835792542 -0.05703898146748543 0.06364206224679947
0.051892779767513275 -0.08560827374458313 -0.012370890937745571
-0.08709263056516647 -0.05880962684750557 -0.03288411349058151
0.05898097902536392 -0.10689821094274521 -0.31584009528160095
0.05530639365315437 -0.09147603064775467 0.03894636780023575
-0.03449086472392082 0.09475485235452652 -0.36234480142593384
-0.0852917954325676 0.04911242052912712 -0.25757408142089844
0.11960780620574951 -0.046245425939559937 0.030596839264035225
-0.02803061716258526 -0.11294212192296982 -0.0411466509103775
-0.09238551557064056 -0.055092088878154755 -0.061123721301555634
-0.08977010846138 -0.058432839810848236 0.059175778180360794
-0.013080697506666183 -0.10129083693027496 0.030546942725777626
0.12515392899513245 -0.05808384716510773 0.049021266400814056
-0.09219025820493698 0.11412439495325089 0.16963982582092285
-0.011073574423789978 -0.09775451570749283 0.012161625549197197
-0.08522723615169525 -0.040652886033058167 0.060915496200323105
0.055519793182611465 -0.08267970383167267 0.006050923839211464
-0.08596870303153992 -0.05512471869587898 0.05628913268446922
-0.09746097028255463 -0.03158870339393616 -0.017309634014964104
0.10616874694824219 -0.04588189721107483 0.06654176861047745
0.03892666846513748 -0.07785344123840332 0.29427370429039
0.11682959645986557 -0.0510331466794014 -0.08153673261404037
-0.0061670634895563126 -0.05877871438860893 -0.20841892063617706
-0.10463657230138779 -0.04062335938215256 0.09625298529863358
0.07672400027513504 -0.07878246158361435 -0.03656909242272377
-0.11208241432905197 0.011670932173728943 -0.05117739364504814
-0.10845407098531723 0.017603211104869843 0.017674652859568596
-0.04809289425611496 -0.09805428236722946 0.053690146654844284
-0.016738789156079292 -0.11870613694190979 -0.18868842720985413
-0.09335365146398544 -0.04289734736084938 0.0032528378069400787
0.01671849749982357 -0.11013533920049667 0.006564466282725334
-0.0791788101196289 -0.06180533021688461 -0.02774408645927906
0.039534129202365875 -0.08965703845024109 -0.01109006442129612
0.10183790326118469 -0.07974536716938019 0.32938477396965027
-0.10457774996757507 0.0806807279586792 -0.047886207699775696
-0.10553348064422607 -0.02869163639843464 0.05280497670173645
-0.09419673681259155 0.01833518221974373 -0.13047635555267334
0.04307851940393448 -0.08931408822536469 -0.027410056442022324
-0.08652254194021225 -0.05753490328788757 -0.048954933881759644
0.024234851822257042 -0.10576176643371582 -0.02988213673233986
-0.08700886368751526 -0.057795219123363495 -0.058141645044088364
-0.07251160591840744 0.1079806387424469 0.3504621684551239
0.05631816014647484 -0.08557762205600739 -0.013546047732234001
0.06271903961896896 -0.08887960016727448 -0.01721799187362194
-0.10031808912754059 0.030319493263959885 -0.07701817154884338
0.042169421911239624 -0.0938921719789505 0.009529540315270424
0.07363945990800858 -0.08695757389068604 0.15516172349452972
-0.02001635544002056 -0.11051558703184128 0.2517237067222595
0.10324384272098541 -0.05959702655673027 0.0014798780903220177
0.09765362739562988 -0.048776984214782715 0.37972477078437805
0.10093903541564941 -0.0821182131767273 -0.0729382261633873
0.08843676745891571 -0.07138372212648392 -0.026518622413277626
-0.08015652000904083 0.1082395389676094 -0.05177240073680878
-0.06057794392108917 0.023755770176649094 -0.3725041449069977
-0.010842300951480865 -0.10785439610481262 -0.12272144854068756
-0.0913066416978836 -0.0630759745836258 0.05257023870944977
0.007605507038533688 -0.10886714607477188 -0.063901886343956
-0.11186157912015915 0.006964089814573526 0.02623516134917736
0.0382075235247612 -0.09279055148363113 0.007810382172465324
-0.06470566987991333 -0.0779709741473198 0.2156195342540741
-0.10415006428956985 0.013846760615706444 0.08838372677564621
-0.09126698225736618 -0.04991886764764786 0.024993248283863068
0.09176184237003326 -0.05502971261739731 -0.004718104377388954
-0.08501175791025162 -0.07404644787311554 -0.027374768629670143
-0.0818852037191391 -0.034762345254421234 -0.27926039695739746
-0.0049184225499629974 -0.11035115271806717 -0.060789771378040314
0.024156972765922546 -0.10359609127044678 0.1443983018398285
-0.13387148082256317 0.047776125371456146 0.2988542914390564
-0.0025604236871004105 -0.09588897973299026 0.016792288050055504
-0.0839942917227745 -0.06311339884996414 -0.05485471338033676
0.03050473891198635 -0.1051279604434967 0.2637404799461365
-0.1125316247344017 0.1026659831404686 0.31394264101982117
-0.11587803810834885 0.0185907781124115 0.08595570176839828
-0.10688798129558563 0.052277665585279465 0.13715298473834991
0.12932442128658295 -0.06075642257928848 -0.06324302405118942
-0.10020681470632553 -0.03786361217498779 -0.024222522974014282
-0.055695388466119766 -0.06993088126182556 -0.12577295303344727
-0.019133422523736954 -0.09540456533432007 0.018517542630434036
-0.08873791247606277 -0.04581734910607338 0.08604206889867783
-0.055665865540504456 -0.08489879220724106 -0.2692018747329712
-0.10557930171489716 -0.04765233024954796 0.19855692982673645
-0.08759745955467224 -0.060378629714250565 -0.05371145159006119
0.059419550001621246 -0.08528688549995422 -0.02076442912220955
0.0452985018491745 -0.09460557997226715 -0.010648759081959724
0.07747896015644073 -0.07477825880050659 -0.035773865878582
0.09447666257619858 -0.08915923535823822 0.4024263024330139
-0.022204754874110222 -0.10005780309438705 0.028765054419636726
0.061943262815475464 -0.08178307861089706 -0.004351554438471794
-0.09676690399646759 0.08071493357419968 0.097159743309021
0.08671724796295166 -0.060758188366889954 0.24196359515190125
0.06000159680843353 -0.08443829417228699 -0.011731807142496109
0.09339449554681778 -0.05671268701553345 0.07255451381206512
0.05323424190282822 -0.08746896684169769 -0.013084731996059418
-0.10893893986940384 0.023866722360253334 0.01959356665611267
-0.08482180535793304 -0.048903994262218475 0.05437835678458214
-0.11557432264089584 0.02549751102924347 0.015256943181157112
-0.004327481612563133 -0.10603682696819305 0.028645014390349388
0.037573784589767456 -0.08621048182249069 -0.007373230531811714
-0.0037374154198914766 -0.10556331276893616 -0.0964999794960022
0.09975994378328323 -0.03815970569849014 0.1972774863243103
-0.09005288034677505 -0.05902978405356407 -0.0452733039855957
-0.05774173140525818 0.13772274553775787 0.20795710384845734
-0.09787151962518692 -0.05779191479086876 -0.06708663702011108
-0.06075552850961685 -0.100388303399086 0.2686464786529541
-0.09228507429361343 0.08255670219659805 -0.008074142970144749
0.10768872499465942 -0.060835257172584534 -0.0004201754927635193
-0.11430323123931885 0.020799685269594193 -0.0027232300490140915
-0.11683253198862076 0.01274431124329567 -0.036974772810935974
-0.09424848854541779 0.0973680317401886 0.12096655368804932
-0.08499105274677277 -0.06136175990104675 0.07176867127418518
-0.10288596898317337 -0.013800421729683876 0.05075322836637497
0.038992781192064285 -0.1059640571475029 0.18669982254505157
-0.10402466356754303 0.039116088300943375 -0.01141489576548338
0.049831729382276535 -0.10765253007411957 -0.1740054339170456
0.08519931137561798 -0.09768972545862198 -0.2349599301815033
0.01594531536102295 -0.10335585474967957 0.16431930661201477
-0.06600554287433624 -0.08635711669921875 -0.061584390699863434
0.0458771251142025 -0.0810047909617424 0.008276592940092087
-0.020435646176338196 -0.09638072550296783 0.01970752142369747
-0.09634505957365036 -0.043942272663116455 -0.0012211212888360023
-0.11440133303403854 -0.021994836628437042 0.050282470881938934
-0.10462955385446548 0.07598880678415298 0.08543721586465836
0.34468069672584534 0.014612450264394283 -0.011188691481947899
-0.0040571559220552444 -0.09908702224493027 0.029143325984477997
-0.07302634418010712 0.07261920720338821 0.13084237277507782
0.11372452974319458 -0.03263673931360245 0.04148966073989868
0.11199654638767242 -0.06190874055027962 -0.025979354977607727
-0.11323367059230804 0.024539312347769737 -0.00026550889015197754
0.11365571618080139 -0.048331815749406815 -0.04617196321487427
-0.01762554794549942 -0.0900191068649292 0.005830639973282814
-0.1126493364572525 0.010576335713267326 0.020814720541238785
-0.08125845342874527 -0.050481632351875305 -0.04439937323331833
-0.11811182647943497 0.005087167955935001 -0.16395260393619537
-0.008017385378479958 -0.09807798266410828 0.01654680259525776
-0.08787009865045547 -0.07411091774702072 0.05205652862787247
-0.11525189876556396 0.05158515274524689 -0.01312340423464775
-0.07647991925477982 0.11056413501501083 -0.12727859616279602
0.013875458389520645 -0.09644639492034912 0.04284040629863739
-0.07904352992773056 0.12778295576572418 0.2506290376186371
-0.08524014055728912 -0.049115076661109924 0.038237232714891434
-0.08746638149023056 -0.06919369846582413 0.33642733097076416
-0.09070710837841034 -0.07214779406785965 -0.0981055498123169
0.02367953583598137 -0.09743035584688187 0.09855296462774277
-0.08706285804510117 0.1014881581068039 -0.0022038351744413376
-0.06899656355381012 0.12615054845809937 0.4155683219432831
-0.04670967906713486 -0.08224520087242126 0.24776746332645416
-0.06403107941150665 0.13081741333007812 0.10141325742006302
0.03065199963748455 -0.08841785788536072 0.03694732487201691
0.05844174697995186 -0.11032255738973618 -0.3948836326599121
0.06256891041994095 -0.0903114378452301 -0.015202395617961884
-0.10660813748836517 0.002833891659975052 -0.05469294637441635
-0.11605928838253021 0.023115484043955803 0.11909645795822144
-0.11664305627346039 -0.028176896274089813 -0.23938624560832977
0.04915944114327431 -0.10722743719816208 0.012838820926845074
-0.0674562007188797 -0.1088201180100441 -0.003929452504962683
0.017893407493829727 -0.08923470228910446 0.05140058323740959
-0.10621445626020432 -0.04457063972949982 0.010286487638950348
-0.01042165420949459 0.06645994633436203 0.233944833278656
0.038366757333278656 -0.09287592768669128 -0.008987260051071644
