-0.10799620300531387 -0.018103815615177155 0.0035542799159884453
0.05605502426624298 -0.09224057197570801 0.043389737606048584
0.1491672247648239 -0.08842252194881439 -0.30636173486709595
-0.07809768617153168 0.13857628405094147 -0.23603923618793488
0.1138269305229187 -0.03512658551335335 -0.351845920085907
-0.10979995876550674 0.010524990037083626 -0.006287075579166412
0.11560118943452835 -0.0666315108537674 -0.01623990759253502
-0.05378036946058273 -0.09552938491106033 0.43067777156829834
-0.07936902344226837 -0.06286896020174026 -0.4166848063468933
0.07474979013204575 -0.0878751128911972 0.16300255060195923
-0.08654680103063583 0.1124652624130249 0.029117422178387642
-0.10632576793432236 0.13668827712535858 0.06532829999923706
0.02677418291568756 -0.0909980908036232 0.07643307745456696
-0.02885092981159687 -0.10762979835271835 0.33973145484924316
-0.09153065085411072 -0.06616263836622238 -0.059262391179800034
-0.05615106225013733 -0.10293697565793991 0.13712988793849945
-0.08665761351585388 0.10181430727243423 0.015039915218949318
-0.09642934054136276 -0.07253599911928177 -0.0743098184466362
-0.11979604512453079 -0.026393231004476547 0.14775730669498444
-0.1058197170495987 -0.01611384004354477 0.05760496109724045
0.07129812985658646 -0.08207425475120544 0.0649610236287117
-0.08618885278701782 -0.0034257518127560616 0.10850567370653152
-0.07810550928115845 0.08745153993368149 0.12062191218137741
0.030408687889575958 0.4123866558074951 0.1443919539451599
0.01138485036790371 -0.08141625672578812 -0.30733028054237366
-0.006852211430668831 -0.09351297467947006 0.048870645463466644
0.08152918517589569 -0.09581372141838074 -0.11171180754899979
0.04418812692165375 -0.09698504209518433 -0.011184100061655045
-0.09676904231309891 0.04205171763896942 -0.20604781806468964
0.019055522978305817 -0.11134808510541916 -0.03813400864601135
-0.13016584515571594 0.08586190640926361 0.3380339443683624
0.25258466601371765 -0.08988045901060104 0.1967894732952118
-0.05431487411260605 0.1343759000301361 -0.12456958740949631
-0.010136774741113186 -0.10195773839950562 0.020404860377311707
-0.07965729385614395 -0.08937835693359375 0.16485290229320526
-0.11211390793323517 0.040499988943338394 0.08865872770547867
-0.09225820749998093 -0.08935471624135971 0.4238336682319641
-0.03860758990049362 -0.12973040342330933 -0.11657234281301498
-0.11113937944173813 0.031654879450798035 0.05465385317802429
-0.10797247290611267 0.021262599155306816 0.25778254866600037
-0.07233259081840515 -0.10418636351823807 -0.14769496023654938
0.052038200199604034 -0.09342758357524872 0.0830727368593216
-0.09335760027170181 -0.06393606215715408 0.122757688164711
-0.11261515319347382 0.006960008293390274 0.007630745880305767
-0.009368328377604485 -0.08252937346696854 0.03219599649310112
-0.10904858261346817 0.03837491199374199 0.05808660387992859
0.41220951080322266 0.05455278977751732 0.2645244598388672
0.08600237220525742 -0.06157378852367401 -0.03353700786828995
-0.09571361541748047 -0.05638441443443298 0.022862615063786507
-0.08895523846149445 -0.06719997525215149 -0.05962887033820152
-0.07646693289279938 0.09422922879457474 0.08115106076002121
-0.071613609790802 -0.08515918254852295 -0.060355715453624725
-0.10447985678911209 -0.010221503674983978 0.05697264522314072
-0.055052027106285095 0.14103205502033234 0.11531476676464081
-0.03224727138876915 0.14206543564796448 -0.16335618495941162
-0.08861919492483139 -0.07033638656139374 -0.05521545559167862
-0.10535946488380432 0.023185063153505325 0.0461844764649868
-0.036948513239622116 -0.10065017640590668 0.2581215500831604
0.018441488966345787 -0.08829354494810104 0.12533563375473022
0.03863935172557831 -0.1042691320180893 -0.029677623882889748
-0.004515890032052994 -0.10101129114627838 0.013655783608555794
-0.11116315424442291 0.031631968915462494 -0.006128877401351929
0.1244274377822876 -0.052159544080495834 0.0030666533857584
-0.09020087122917175 0.03476879000663757 0.06511462479829788
0.045908600091934204 -0.09661579132080078 -0.012465446256101131
0.13236111402511597 -0.08318590372800827 -0.41825932264328003
0.20666706562042236 -0.06767991930246353 0.09920144081115723
0.10026125609874725 -0.07241393625736237 0.051156651228666306
-0.027028867974877357 -0.08863885700702667 0.010582676157355309
0.01978924125432968 -0.11740340292453766 0.33991941809654236
-0.08940120041370392 -0.06279337406158447 -0.033516399562358856
-0.11473620682954788 0.04266923666000366 0.00819791667163372
0.020123213529586792 -0.09377489984035492 0.16795171797275543
-0.10835836082696915 0.006362677551805973 0.0178371574729681
0.04220215603709221 -0.09798488020896912 0.009203212335705757
-0.08508160710334778 -0.0850144699215889 0.15466736257076263
0.04116448760032654 -0.11552020162343979 -0.09771976619958878
-0.10602305829524994 0.09083273261785507 0.19244195520877838
-0.0049624377861619 -0.09817085415124893 0.011131400242447853
-0.13190343976020813 0.0694618746638298 0.13663649559020996
-0.0879833772778511 0.009412048384547234 0.19541388750076294
-0.10716992616653442 -0.04809708148241043 -0.005152599886059761
-0.003466341644525528 -0.0855676531791687 0.2793222665786743
-0.00563400611281395 -0.10021202266216278 0.014276147820055485
-0.08170770853757858 -0.04532761126756668 0.17616969347000122
0.05393305793404579 -0.09014122933149338 -0.10429517924785614
-0.10965943336486816 -0.03420747071504593 -0.36464738845825195
-0.02367788925766945 -0.09989935159683228 0.020804818719625473
0.12341688573360443 -0.08158668875694275 -0.1356430947780609
0.0625009536743164 -0.09022693336009979 -0.02431313320994377
0.022556990385055542 -0.1196684017777443 -0.02180630713701248
0.09947097301483154 -0.06947926431894302 -0.029019713401794434
0.16639211773872375 -0.03517289087176323 -0.16600869596004486
0.05672472342848778 -0.09161001443862915 0.17942743003368378
0.017521142959594727 -0.10203678160905838 0.004750433377921581
-0.09445670992136002 0.045201100409030914 -0.1383766084909439
-0.0798705443739891 -0.10733332484960556 0.07701385766267776
0.05104553699493408 -0.09143945574760437 -0.04685496538877487
-0.14366808533668518 -0.0401192232966423 0.4095137119293213
0.0499870702624321 -0.12758435308933258 -0.04957720264792442
-0.10003888607025146 0.019898932427167892 0.03337547555565834
-0.09281434118747711 0.06819379329681396 -0.19505438208580017
0.11709599941968918 -0.037129439413547516 -0.22009402513504028
0.06811659038066864 -0.08876911550760269 -0.024314729496836662
-0.01077667623758316 -0.10963700711727142 0.02591901458799839
0.0033590849488973618 -0.10511242598295212 0.13989506661891937
-0.14038175344467163 0.010189104825258255 -0.12074553221464157
0.11515967547893524 -0.09662821143865585 0.23969903588294983
0.06003136187791824 -0.09521432965993881 -0.049310434609651566
-0.0014229947701096535 -0.09665799885988235 0.018782464787364006
-0.004565161652863026 -0.10283789038658142 0.008072391152381897
-0.04197720065712929 -0.11962731182575226 -0.05979897826910019
0.10159269720315933 -0.07385603338479996 -0.021065983921289444
-0.11825354397296906 0.0978139340877533 0.01235521025955677
0.010158056393265724 0.10804286599159241 0.1390649378299713
-0.1342272311449051 0.0669611468911171 0.18969739973545074
-0.08807190507650375 0.11540103703737259 -0.021964415907859802
0.09138789772987366 -0.07171133905649185 -0.03420400246977806
0.19582413136959076 -0.05673787742853165 -0.27514538168907166
0.05973907560110092 -0.08948121964931488 -0.02805304527282715
-0.12579047679901123 -0.04298015683889389 -0.03040418028831482
0.07693025469779968 -0.09571770578622818 -0.08288434147834778
-0.10698432475328445 0.035787295550107956 -0.1917019933462143
0.10210384428501129 -0.07343027740716934 -0.03217403218150139
0.13430146872997284 -0.06741134822368622 -0.0035585276782512665
0.09269142150878906 -0.07311707735061646 -0.022680802270770073
0.0909789428114891 -0.06186027079820633 -0.030990712344646454
0.13562321662902832 -0.05081499367952347 -0.16349756717681885
-0.07304102182388306 0.19706085324287415 -0.1049392968416214
-0.11610284447669983 -0.04359987750649452 0.28536543250083923
-0.024931548163294792 -0.09384556114673615 0.03257642686367035
-0.12354788184165955 -0.06542028486728668 -0.06919495016336441
0.04724228382110596 -0.09469053894281387 -0.009505793452262878
-0.05433857440948486 -0.11302776634693146 0.09034664928913116
-0.03809165582060814 -0.09924975037574768 -0.05404254049062729
-0.09923437982797623 -0.02459883503615856 0.05763321369886398
0.11122564226388931 -0.06180544197559357 -0.010041773319244385
0.07091828435659409 -0.08787866681814194 -0.010508616454899311
0.044124163687229156 -0.08928278088569641 0.04992922395467758
-0.09695613384246826 -0.035551298409700394 -0.003961443901062012
-0.1060575544834137 0.12412106245756149 0.21327707171440125
0.061241816729307175 -0.08916015923023224 -0.021405324339866638
-0.09922593086957932 -0.021677108481526375 0.04671116918325424
0.0917811393737793 -0.07981052249670029 -0.09884493052959442
-0.09479165077209473 -0.07633079588413239 0.05605915188789368
-0.06080056354403496 -0.10848934203386307 -0.15269707143306732
-0.09093282371759415 0.052975889295339584 0.09670385718345642
0.027527548372745514 -0.10647591203451157 0.0508045069873333
-0.08985089510679245 -0.060619376599788666 -0.06076535955071449
-0.13277049362659454 0.07670243084430695 0.28543925285339355
-0.07495022565126419 0.07479575276374817 -0.23570466041564941
0.04733387008309364 -0.10695669054985046 -0.009728314355015755
-0.08933895826339722 -0.059019144624471664 -0.03282906487584114
-0.04955584928393364 -0.0772089958190918 0.21500623226165771
-0.0989503264427185 -0.02940315566956997 -0.027893146499991417
-0.09575329720973969 -0.07452031224966049 -0.04424954950809479
-0.051325201988220215 -0.1007579118013382 0.13496294617652893
0.029380518943071365 -0.07089897245168686 0.028749771416187286
-0.004124075174331665 -0.10656328499317169 0.018184825778007507
-0.1124114841222763 0.04112567752599716 0.03565015643835068
-0.08849180489778519 -0.06348889321088791 -0.030311331152915955
-0.11877510696649551 0.10845927894115448 -0.2988218069076538
-0.06700308620929718 -0.08555643260478973 0.06583444774150848
-0.08630519360303879 0.20053920149803162 -0.28053778409957886
0.10830739885568619 -0.06651698052883148 -0.016858510673046112
-0.12041536718606949 -0.014716021716594696 0.06083241105079651
-0.08543427288532257 -0.028001800179481506 0.09998802840709686
-0.07884321361780167 0.06470757722854614 0.16685700416564941
0.03639648109674454 -0.1093076765537262 0.027489090338349342
0.07981623709201813 -0.08465460687875748 0.16964566707611084
-0.005565112456679344 -0.13304206728935242 -0.05805855244398117
-0.08084733784198761 0.1269860863685608 -0.09208396077156067
-0.0962483361363411 -0.07913853228092194 -0.07886472344398499
-0.007898193784058094 -0.10273001343011856 0.020329345017671585
0.1657734364271164 -0.010435139760375023 -0.10485395789146423
-0.09079017490148544 -0.03217623382806778 -0.03390709310770035
0.11207055300474167 -0.07322946935892105 -0.016003316268324852
-0.10576701164245605 0.03657243400812149 0.0001355297863483429
0.032778531312942505 -0.09389571100473404 0.02315627411007881
0.16328617930412292 0.007162611931562424 0.006960935890674591
0.25259435176849365 -0.10018618404865265 0.44025126099586487
-0.07962502539157867 0.15059366822242737 -0.018035897985100746
-0.03101852908730507 -0.11086335778236389 0.19113954901695251
-0.08041742444038391 -0.06816929578781128 -0.04086034744977951
-0.08449235558509827 -0.05773582682013512 -0.043299347162246704
-0.049046553671360016 0.061760131269693375 0.13721910119056702
-0.0942048653960228 -0.0725373849272728 -0.0625855028629303
0.2271164059638977 -0.0002606641501188278 0.38995954394340515
-0.08640222251415253 0.03270656242966652 0.15995582938194275
-0.07934268563985825 0.26832446455955505 0.28929781913757324
-0.10467860102653503 0.021247761324048042 0.024656664580106735
-0.100545734167099 0.02848190627992153 -0.3185991048812866
0.0319780558347702 -0.11276806145906448 0.46640387177467346
-0.08994509279727936 -0.0700056180357933 -0.037187643349170685
0.01805245503783226 -0.04586154967546463 -0.46389123797416687
0.07969751209020615 -0.09179659187793732 -0.16439378261566162
-0.10096751898527145 0.08676835894584656 -0.10602402687072754
-0.09476184099912643 -0.04606642946600914 0.04656605422496796
-0.08510126173496246 0.01517006941139698 0.12335027754306793
-0.11055027693510056 0.021191813051700592 0.0015018032863736153
-0.0878935307264328 0.05698493495583534 -0.15707740187644958
0.11679556965827942 -0.07574617862701416 -0.1941804587841034
0.03700796142220497 -0.06714478880167007 0.08588849753141403
-0.013218254782259464 -0.08816857635974884 -0.14905859529972076
0.011492357589304447 -0.12671492993831635 -0.05242461711168289
0.10678351670503616 -0.0762857049703598 -0.01859903149306774
0.27203091979026794 -0.08236871659755707 0.10953187942504883
0.08733624964952469 -0.0797569528222084 -0.03042181208729744
0.00402878038585186 -0.10700322687625885 0.004494579508900642
0.05787772685289383 -0.08755423128604889 -0.0007532015442848206
0.02847345545887947 0.37851497530937195 -0.05471078306436539
-0.09716612100601196 0.05168357118964195 -0.1225803941488266
-0.08223077654838562 0.08859055489301682 0.07549554854631424
0.11867921054363251 -0.05590227246284485 -0.055193789303302765
-0.13291756808757782 -0.01570628583431244 0.07862544059753418
-0.09295950084924698 -0.05597176030278206 -0.02606508508324623
0.06694374233484268 -0.07750722765922546 -0.2209310233592987
0.04394891858100891 -0.10264736413955688 -0.12267975509166718
0.03419836238026619 -0.08890669047832489 0.04475352540612221
-0.10402071475982666 -0.05566848814487457 0.08267736434936523
-0.09410709887742996 -0.07500731199979782 0.1091136783361435
0.12461826205253601 -0.0620688796043396 0.0071216002106666565
-0.11335762590169907 0.014256251975893974 0.025098826736211777
0.0687602236866951 -0.06775745749473572 -0.027672752737998962
-0.037405624985694885 0.13702891767024994 -0.038867078721523285
-0.09123842418193817 0.002449149964377284 -0.0030340012162923813
-0.09989651292562485 0.12749186158180237 0.09362781047821045
0.08693981170654297 -0.07266141474246979 -0.03880228102207184
-0.08043678104877472 0.08504221588373184 -0.020919013768434525
-0.11320170760154724 0.01818818598985672 0.004825238138437271
-0.007714401930570602 -0.08660903573036194 -0.014689262956380844
-0.026864580810070038 -0.05071137100458145 0.3538368344306946
-0.09251481294631958 -0.08936583995819092 -0.046865563839673996
-0.0276812594383955 -0.05040431767702103 0.2896042764186859
-0.11116363853216171 0.012219995260238647 0.05686464160680771
-0.06885133683681488 -0.10602071136236191 -0.23246338963508606
-0.09797465056180954 -0.01957828365266323 0.058936793357133865
-0.07814353704452515 0.13025027513504028 0.04291355237364769
-0.002080116420984268 -0.10044556111097336 0.020662665367126465
-0.08355595916509628 0.010373743250966072 -0.44728100299835205
-0.10399962961673737 -0.04020418971776962 0.003977203741669655
-0.06610774248838425 -0.0854596272110939 -0.06722599267959595
-0.0971110388636589 -0.04768700897693634 -0.017848359420895576
0.05576666072010994 -0.09651361405849457 -0.05722285807132721
-0.10799526423215866 0.03853108733892441 0.04789458215236664
-0.11394059658050537 -0.0876249372959137 -0.1522262990474701
-0.09224136173725128 0.012613710947334766 0.08164645731449127
0.031989894807338715 -0.12024931609630585 0.41236191987991333
0.05748584121465683 -0.0793960839509964 0.008704050444066525
0.07442859560251236 -0.07592505216598511 -0.022241918370127678
-0.010105438530445099 -0.12588141858577728 0.39840343594551086
0.04748493432998657 -0.08572283387184143 0.022266531363129616
-0.006976611912250519 -0.11753688007593155 -0.0971035286784172
0.1114751547574997 -0.07188069075345993 -0.028559282422065735
-0.0869085043668747 -0.06013371795415878 -0.042778193950653076
-0.13867595791816711 0.0669683963060379 0.4469740688800812
0.09401348978281021 -0.1079486757516861 0.4089840054512024
0.10106281191110611 -0.06528431177139282 -0.015269934199750423
-0.10313302278518677 0.1561279147863388 0.31868505477905273
-0.013179396279156208 -0.10404618084430695 0.016599450260400772
-0.09478755295276642 0.008517581969499588 0.017169015482068062
-0.08299458026885986 -0.07725316286087036 -0.044842205941677094
-0.04594738036394119 0.13556118309497833 -0.30167436599731445
0.12427787482738495 -0.06841780245304108 -0.059801504015922546
0.12221492826938629 -0.06231740862131119 0.09596134722232819
0.0440080463886261 -0.09305805712938309 -0.018457787111401558
-0.10645288974046707 -0.02636570855975151 0.3514631390571594
-0.0023993346840143204 -0.10117394477128983 0.020986516028642654
0.11318916827440262 -0.05908384546637535 -0.017864583060145378
-0.005243111401796341 -0.09327537566423416 0.013624688610434532
-0.09829375147819519 0.01239759474992752 0.010651180520653725
-0.09572567045688629 0.013612700626254082 0.03357166796922684
0.42917415499687195 0.04485424607992172 0.46023720502853394
-0.09114065766334534 -0.07567489892244339 -0.0497962050139904
-0.08040198683738708 0.08475194871425629 -0.3271983861923218
-0.04542023316025734 0.0032966770231723785 0.10293509811162949
-0.055060483515262604 -0.09253428876399994 0.11194013804197311
-0.009279162622988224 -0.09209780395030975 0.09865503758192062
-0.11983933299779892 0.04205206036567688 0.055743079632520676
-0.09122765064239502 -0.05977250635623932 -0.030481478199362755
0.04712540656328201 -0.09796594083309174 -0.0356362946331501
0.05915958061814308 -0.10865548253059387 -0.023286648094654083
-0.1215980052947998 -0.005789643153548241 -0.026274755597114563
-0.0868968740105629 -0.07438927888870239 -0.04777645319700241
-0.08655901253223419 -0.07629306614398956 -0.03270740061998367
-0.06135179474949837 0.16097307205200195 0.10213004052639008
0.09550505876541138 -0.06752671301364899 -0.042118288576602936
-0.12438139319419861 0.033769603818655014 0.10108396410942078
-0.024714753031730652 -0.10669898241758347 -0.07401508092880249
0.11717961728572845 -0.07061932981014252 -0.005445284768939018
-0.003647295758128166 -0.12720917165279388 -0.36768147349357605
0.0562688410282135 -0.0914430022239685 -0.01529165729880333
-0.08888410031795502 0.08134523034095764 0.01832231879234314
-0.0927792340517044 -0.06152934953570366 0.05255156755447388
-0.003605825826525688 -0.09549620747566223 0.011498924344778061
-0.12556575238704681 -0.03569236397743225 -0.1522202044725418
-0.10301234573125839 0.07202140986919403 -0.020851250737905502
-0.002662962768226862 -0.1063450500369072 0.0155952088534832
-0.09894425421953201 0.1024247407913208 -0.00944023858755827
0.0949474424123764 -0.0592968575656414 -0.027126414701342583
-0.014134695753455162 0.0673581063747406 -0.4554882049560547
-0.08907373249530792 -0.07216889411211014 -0.04004639387130737
0.09923145174980164 -0.06417915225028992 -0.018980536609888077
-0.07231608033180237 -0.08068431913852692 -0.33983027935028076
-0.008546208962798119 -0.09895022958517075 0.017219265922904015
0.14975254237651825 -0.07308721542358398 -0.22878281772136688
0.11727312207221985 -0.06356798112392426 -0.011149052530527115
0.0022343886084854603 -0.08745945245027542 0.015410026535391808
-0.09051094949245453 0.11216910183429718 0.058232396841049194
0.06802612543106079 -0.10767510533332825 -0.0264345183968544
-0.13484692573547363 -0.03211043030023575 0.44681516289711
0.06807489693164825 -0.07898867875337601 -0.02487032674252987
0.03156282380223274 -0.10685651004314423 -0.027767222374677658
-0.05159566178917885 -0.08982324600219727 -0.04953790083527565
0.06881694495677948 -0.0909443348646164 -0.023588072508573532
-0.0890105664730072 -0.042258866131305695 -0.02806340530514717
-0.005432141944766045 -0.11011447012424469 0.010653262957930565
-0.10291221737861633 -0.028420323505997658 -0.13663369417190552
-0.005866022780537605 -0.09153173118829727 0.012785449624061584
0.06053490936756134 -0.090787872672081 0.03382367640733719
-0.10745084285736084 0.018094265833497047 -0.003695604158565402
0.03547687083482742 -0.12071135640144348 -0.11341806501150131
-0.020115487277507782 -0.08287324756383896 -0.03855454921722412
0.006351074203848839 -0.08354099839925766 0.012429550290107727
-0.09359433501958847 -0.03811750188469887 -0.023003237321972847
-0.086338110268116 -0.058851029723882675 0.0993214100599289
-0.0878615528345108 0.029493236914277077 0.005386317148804665
0.0610518679022789 -0.10477042198181152 0.03602917492389679
-0.09264963865280151 0.03689220920205116 0.015006572008132935
-0.06622879207134247 -0.1148710772395134 0.38247939944267273
-0.09630017727613449 -0.08708828687667847 -0.12945722043514252
-0.09272166341543198 -0.08911952376365662 0.4810904860496521
0.00019492395222187042 -0.10276639461517334 0.003735104575753212
0.11580829322338104 -0.07345893234014511 -0.003917744383215904
0.05666631832718849 -0.0917014628648758 -0.016898296773433685
-0.09340426325798035 -0.07181385904550552 -0.04951046407222748
-0.09366104006767273 -0.032536666840314865 -0.0179501473903656
-0.11357924342155457 0.01908864453434944 0.018173495307564735
0.1827419400215149 -0.07084506005048752 0.2885494530200958
0.06811674684286118 -0.09535577893257141 0.13486281037330627
-0.10335323214530945 0.01513427309691906 -0.22413678467273712
-0.1128285676240921 0.011750537902116776 0.0939294621348381
-0.10248856246471405 0.04379115626215935 0.007360496558248997
-0.0440201573073864 0.11094029247760773 -0.23317740857601166
0.1612987071275711 -0.06998977065086365 0.21092334389686584
0.07540561258792877 -0.025532018393278122 -0.43797382712364197
0.12842434644699097 -0.058132272213697433 -0.013166922144591808
0.003394031897187233 -0.09888607263565063 0.013600625097751617
-0.08547340333461761 0.005086645483970642 0.0032818950712680817
-0.018215244635939598 -0.11314655840396881 0.009234420955181122
-0.0969657376408577 -0.07619442790746689 0.05162632465362549
-0.08948589116334915 -0.011220285668969154 0.09903542697429657
-0.09094872325658798 -0.06502121686935425 -0.036074958741664886
-0.11157581955194473 0.04240269958972931 -0.03872048854827881
-0.09821979701519012 0.011559423990547657 0.010847635567188263
-0.08775623887777328 -0.08357927948236465 -0.03763161972165108
-0.0963975116610527 -0.07899539917707443 -0.04865333437919617
0.09149419516324997 -0.06805932521820068 -0.03661230206489563
0.07119222730398178 -0.0875149518251419 -0.028166521340608597
0.021500537171959877 -0.10445228964090347 -0.1948411762714386
0.10523590445518494 -0.07482455670833588 -0.036438439041376114
0.00019362755119800568 -0.09557901322841644 0.014723120257258415
0.11138461530208588 -0.07415234297513962 -0.002654265146702528
-0.13067667186260223 0.015854183584451675 0.3880174458026886
0.08069069683551788 -0.0858984887599945 0.012196243740618229
-0.0013787467032670975 -0.1082983985543251 0.010051971301436424
-0.08483815938234329 -0.0381285734474659 -0.020044276490807533
0.035947807133197784 -0.09288058429956436 0.11382579803466797
0.11272686719894409 -0.06556110829114914 -0.12523852288722992
0.12317904829978943 -0.06992251425981522 -0.000342467799782753
0.052792973816394806 -0.0900975838303566 -0.01467537134885788
-0.12106843292713165 0.01918981224298477 -0.002875218167901039
0.0595070943236351 -0.08969642966985703 -0.023979758843779564
-0.08775119483470917 -0.0677248165011406 -0.02984493039548397
0.007264359388500452 -0.12126414477825165 0.11742035299539566
0.2984426021575928 0.005039878189563751 -0.20674768090248108
-0.13028717041015625 -2.5333836674690247e-05 0.19367615878582
-0.0188748799264431 -0.08978930115699768 0.005787605419754982
-0.033008430153131485 -0.11768528074026108 -0.14991696178913116
-0.08615987747907639 -0.07202570140361786 0.052918821573257446
-0.10172922909259796 0.09684435278177261 0.4754425287246704
-0.08427563309669495 -0.09389812499284744 0.3485814034938812
-0.11038695275783539 0.02672490105032921 0.0004954475443810225
-0.10003846883773804 0.06515410542488098 0.3908945918083191
0.08317308127880096 -0.07019220292568207 -0.028350792825222015
-0.01868201047182083 -0.11032326519489288 0.09870336949825287
-0.10791392624378204 0.02589833363890648 -0.003944762051105499
-0.12922972440719604 -0.01498403213918209 -0.06640426814556122
-0.009954305365681648 -0.08761264383792877 0.05830882489681244
-0.08407892286777496 -0.07767372578382492 -0.05174186825752258
-0.11260373145341873 -0.06412597745656967 0.011482609435915947
0.016106799244880676 -0.12194761633872986 -0.27660036087036133
-0.06562770903110504 0.03347092866897583 -0.06283729523420334
0.00025811418890953064 -0.05610797926783562 -0.36184608936309814
-0.0982697382569313 -0.033286720514297485 -0.0016996613703668118
-0.11525284498929977 0.02527605928480625 0.08856532722711563
-0.103746697306633 -0.03690672293305397 -0.026583518832921982
-0.121302030980587 0.06768693774938583 -0.03815221041440964
-0.1087048351764679 0.07306772470474243 0.0004735039547085762
0.06414861977100372 -0.08988407254219055 -0.02787066623568535
-0.10539291799068451 -0.050940871238708496 -0.14321720600128174
-0.09416046738624573 0.006374448072165251 0.017528953030705452
-0.09605798125267029 0.010503523051738739 0.09276756644248962
-0.1020008772611618 0.09685052931308746 0.032969389110803604
0.052892643958330154 -0.08721273392438889 -0.014720629900693893
-0.08994205296039581 -0.06141374260187149 -0.033894360065460205
0.07213655114173889 -0.08299777656793594 -0.011056376621127129
0.10641136020421982 -0.06479969620704651 -0.02548554167151451
-0.11172066628932953 0.09112397581338882 0.10185085237026215
-0.0893438458442688 -0.057444971054792404 -0.03215973451733589
-0.08307298272848129 0.11221005767583847 -0.05801583081483841
-0.1091056615114212 -0.03063240274786949 0.0026536164805293083
-0.11528951674699783 0.02298887073993683 0.004144217818975449
0.010855874046683311 -0.049339815974235535 0.22144553065299988
0.12513349950313568 -0.0631166324019432 -0.001823989674448967
0.06932447850704193 -0.07740509510040283 -0.010655239224433899
-0.09780871123075485 0.09967974573373795 0.3254067003726959
0.12141655385494232 -0.07161472737789154 -0.09767848253250122
0.10352330654859543 -0.07048791646957397 -0.053988393396139145
-0.04082164913415909 -0.09281217306852341 0.08983006328344345
0.029953574761748314 0.0017592962831258774 -0.5671989321708679
0.09592790901660919 -0.06744752824306488 -0.03609040752053261
0.09254521131515503 -0.08118646591901779 -0.03127000480890274
0.03588820993900299 -0.08904728293418884 0.0023511629551649094
-0.0967334434390068 -0.08369913697242737 0.0647975355386734
-0.014396006241440773 -0.11342363059520721 0.45467615127563477
-0.0027313213795423508 -0.1175931841135025 0.021047834306955338
-0.09742821753025055 0.033679477870464325 0.05248045176267624
-0.09818174690008163 -0.07029107213020325 0.012781444005668163
0.04419802501797676 -0.09051226824522018 -0.06712117791175842
0.10723034292459488 -0.06412962079048157 -0.14722873270511627
0.04273499548435211 -0.10112269222736359 -0.04230540990829468
-0.07216443121433258 -0.03997398912906647 0.03850475698709488
-0.10195508599281311 -0.00665141548961401 -0.11880461871623993
-0.11500856280326843 0.03582723066210747 0.028653772547841072
0.09860868006944656 -0.059741389006376266 -0.006502997130155563
-0.08778473734855652 -0.07034054398536682 -0.03264831379055977
-0.07844605296850204 0.12308736890554428 0.03802046552300453
-0.06533179432153702 -0.08402073383331299 -0.19934438169002533
-0.06598078459501266 0.12976661324501038 -0.17332831025123596
-0.09379830956459045 0.07807660847902298 0.039329592138528824
-0.09446659684181213 -0.0944427102804184 0.027537060901522636
-0.094566211104393 -0.033096566796302795 -0.02462625503540039
-0.09910076856613159 -0.048859599977731705 0.013680989854037762
-0.09448593854904175 -0.07404762506484985 -0.026764027774333954
-0.09840784221887589 0.03217293694615364 0.3000641167163849
-0.11208637058734894 -0.05237281322479248 -0.11828063428401947
-0.09154011309146881 0.13204096257686615 -0.18285608291625977
0.13234351575374603 -0.07143024355173111 0.1361052244901657
-0.1051696315407753 -0.023043012246489525 -0.024509554728865623
-0.06994596868753433 0.14970333874225616 0.19667235016822815
-0.1082303449511528 0.12548038363456726 -0.07011543214321136
-0.11630605161190033 -0.050634175539016724 -0.06078861281275749
-0.054637398570775986 -0.09208016097545624 0.08019868284463882
-0.13935847580432892 0.06151960790157318 0.39169394969940186
-0.07343181222677231 -0.08469720184803009 -0.03343621641397476
0.07542607188224792 -0.09948423504829407 -0.01666262559592724
-0.0851612389087677 0.0833992063999176 0.14595618844032288
-0.044180624186992645 -0.07881350815296173 -0.1894071102142334
0.09644743800163269 -0.06892018765211105 -0.0410037636756897
-0.08989563584327698 -0.07246239483356476 -0.033497437834739685
0.06031235679984093 -0.11383294314146042 0.43929940462112427
-0.07328104972839355 0.20007871091365814 0.01835506595671177
-0.08008778095245361 -0.07222215086221695 0.07150863111019135
-0.10396116971969604 -0.03383353352546692 -0.019220644608139992
-0.09509731084108353 -0.06411927938461304 -0.044949665665626526
0.03422617167234421 -0.012982767075300217 0.10218653827905655
-0.08017933368682861 0.16997310519218445 -0.10777841508388519
-0.1036151722073555 -0.07237791270017624 0.05348965525627136
0.041746847331523895 -0.10111773014068604 -0.08469226956367493
0.11902396380901337 -0.03908967971801758 0.06440230458974838
-0.08886999636888504 -0.06688350439071655 -0.031929440796375275
-0.08328163623809814 -0.07278775423765182 -0.052044857293367386
0.04330826550722122 -0.10308469831943512 0.017723849043250084
0.1001860573887825 -0.0745328888297081 -0.018952379003167152
0.10725486278533936 -0.06939813494682312 -0.02422087825834751
0.11398939043283463 -0.06174274533987045 -0.0018153898417949677
0.1824733465909958 -0.01053205318748951 0.17767469584941864
0.056310541927814484 -0.10768410563468933 -0.27425849437713623
0.05897745490074158 -0.10255426913499832 -0.13651342689990997
-0.08785150945186615 -0.07277274131774902 -0.030702169984579086
-0.1308337301015854 0.0554741695523262 -0.01451888494193554
0.0352153442800045 -0.09368301928043365 -0.0008879038505256176
0.0838141068816185 -0.06692052632570267 0.03662664443254471
-0.05862455070018768 -0.07241992652416229 0.14579430222511292
0.07125744223594666 -0.10616405308246613 0.2433176040649414
-0.10331305116415024 -0.07555702328681946 0.015971187502145767
-0.1317562758922577 0.053251128643751144 0.010996167548000813
-0.09365379065275192 -0.0648195892572403 -0.0358533039689064
-0.03170833736658096 -0.10227982699871063 0.01632409356534481
0.1033429354429245 -0.05883573740720749 -0.26827481389045715
-0.010260436683893204 -0.10632775723934174 0.017778420820832253
0.06136786937713623 -0.10745895653963089 -0.11889851093292236
0.1137969121336937 -0.07580395042896271 -0.020129714161157608
-0.07193271815776825 0.05077487230300903 -0.058343999087810516
-0.03380687162280083 -0.10036870837211609 0.14722095429897308
0.13258713483810425 -0.0601828508079052 0.00665593147277832
-0.09127233177423477 0.025125477463006973 0.09450112283229828
-0.09876555949449539 -0.06788847595453262 -0.057334430515766144
-0.12281304597854614 0.05524377152323723 0.03080086037516594
0.01806282065808773 0.04914456605911255 0.4372881352901459
-0.09280362725257874 0.028656383976340294 0.018594417721033096
-0.0235917828977108 -0.09529820084571838 0.013935629278421402
0.09419579803943634 -0.08956098556518555 0.21572792530059814
-0.1346564143896103 0.009539268910884857 -0.2990284264087677
-0.11743762344121933 -0.0679766833782196 -0.20093385875225067
-0.1123201847076416 -0.030336271971464157 0.11877139657735825
-0.09731981158256531 -0.06687089800834656 -0.0632738545536995
-0.1116841733455658 0.03494559973478317 0.21842603385448456
0.10532493144273758 -0.06858734786510468 -0.02901400811970234
-0.10328703373670578 -0.02640167437493801 0.004999698139727116
-0.09642021358013153 0.06881830841302872 0.08798696845769882
-0.03213682398200035 -0.1321561485528946 0.14569790661334991
-0.03153284266591072 -0.11442559957504272 -0.2682335674762726
0.10789688676595688 -0.06408457458019257 -0.06359712779521942
-0.08618895709514618 -0.06434524059295654 0.05332769453525543
0.11278042197227478 -0.027613457292318344 0.10415705293416977
-0.027469633147120476 -0.1275845766067505 0.021723918616771698
-0.11586891114711761 -0.051673032343387604 0.20861901342868805
-0.019804326817393303 -0.10177471488714218 0.013997003436088562
-0.10126396268606186 0.013960643671452999 -0.07812044024467468
-0.014710769057273865 -0.10728377103805542 0.02193959429860115
-0.06319171190261841 0.14967063069343567 0.14412160217761993
-0.12282031029462814 0.01240985281765461 0.014293748885393143
0.11752337217330933 -0.07212012261152267 0.10353375971317291
0.04544789344072342 -0.100840725004673 -0.03584623336791992
-0.09532108902931213 -0.001767519861459732 0.07512931525707245
-0.010396862402558327 -0.08836473524570465 0.2372460663318634
0.10152807086706161 -0.07235781848430634 0.12484361231327057
-0.11921793222427368 0.022155052050948143 -0.0002419929951429367
0.05737416073679924 -0.10021363943815231 -0.023442216217517853
-0.08400548994541168 -0.07329263538122177 0.1703033745288849
-0.10568830370903015 0.020811686292290688 0.009128425270318985
-0.008473170921206474 -0.10452888160943985 0.06277821958065033
0.0491444356739521 -0.10536566376686096 -0.01235984731465578
-0.1245674267411232 0.08204907923936844 0.24913762509822845
0.01566784456372261 0.4632818102836609 0.4344528913497925
0.07973633706569672 -0.09950096160173416 0.35805797576904297
0.1290883719921112 -0.059698134660720825 -0.008638633415102959
-0.014812404289841652 -0.10417307913303375 0.01212508324533701
-0.06990322470664978 0.13400602340698242 0.12365813553333282
-0.061188049614429474 0.16635417938232422 0.07388602197170258
-0.1353578269481659 -0.003919566050171852 0.32600563764572144
-0.1113341897726059 0.12837010622024536 0.42035195231437683
-0.11477789282798767 0.058336712419986725 -0.01644160784780979
-0.03014778159558773 0.15230393409729004 0.011901810765266418
-0.08598768711090088 0.09379597008228302 -0.18541765213012695
-0.09765632450580597 0.06441568583250046 0.19137893617153168
0.004565054085105658 -0.13225014507770538 0.02869153767824173
-0.004174261819571257 -0.10265543311834335 0.02138454094529152
0.04529736191034317 -0.10049411654472351 -0.022453436627984047
-0.1027987152338028 0.08236196637153625 0.0035304389894008636
-0.08329875767230988 0.040841713547706604 0.07709997892379761
0.06743679940700531 -0.08916635066270828 -0.034227658063173294
-0.07276995480060577 0.12538453936576843 0.1020049899816513
-0.004876170307397842 -0.10384038090705872 0.0191950760781765
-0.08072055876255035 0.07339973002672195 0.05549461394548416
0.05803798884153366 -0.09888776391744614 -0.12792591750621796
-0.07944822311401367 -0.06753451377153397 -0.02525465190410614
0.026469264179468155 -0.12026636302471161 0.2547686696052551
-0.028075572103261948 -0.10476436465978622 0.051277607679367065
0.08514215052127838 -0.09433385729789734 0.020774781703948975
-0.007342934142798185 -0.1034921184182167 -0.008110463619232178
-0.08549302816390991 0.04593243449926376 0.028109349310398102
0.1451101154088974 -0.05570964515209198 -0.0825527086853981
-0.09282723814249039 -0.020456641912460327 -0.14752721786499023
-0.09670756012201309 0.06540866941213608 0.06653301417827606
-0.1096094474196434 0.07363148778676987 0.04772108793258667
-0.08366044610738754 -0.08223582804203033 -0.04904276505112648
-0.08452805876731873 -0.012105748057365417 0.059824809432029724
-0.11495751142501831 0.04147323966026306 0.010695412755012512
-0.09894242882728577 0.005948465317487717 0.020028410479426384
8.303136564791203e-05 -0.09980694949626923 0.02386864461004734
-0.08536462485790253 0.1983615756034851 0.16453661024570465
-0.005821257829666138 -0.10841494053602219 0.021808810532093048
-0.019397232681512833 -0.054076630622148514 0.43578851222991943
-0.10843237489461899 -0.045187223702669144 0.005081759765744209
-0.1057305783033371 0.021720364689826965 0.030309274792671204
0.017680209130048752 -0.09672520309686661 0.028378715738654137
0.11678041517734528 -0.057916466146707535 -0.09877821803092957
-0.05070122331380844 0.21944989264011383 0.09681090712547302
0.025566406548023224 -0.13072681427001953 -0.22918865084648132
-0.07843200862407684 -0.09977030009031296 -0.05115516111254692
-0.0908472016453743 -0.08578912913799286 -0.034961894154548645
-0.08982794731855392 0.10163779556751251 0.02373448573052883
-0.06917358189821243 0.1754116415977478 0.35728856921195984
-0.023157084360718727 -0.11718979477882385 0.09949186444282532
-0.1049162745475769 0.10234777629375458 0.2078666090965271
-0.07429004460573196 0.1306273639202118 0.06923125684261322
0.09125925600528717 -0.06961807608604431 -0.016477340832352638
0.033857643604278564 -0.07554865628480911 0.13883382081985474
-0.10040036588907242 -0.017138604074716568 0.05649615824222565
-0.1043454110622406 0.036237649619579315 0.01609444059431553
-0.08288328349590302 0.04670223593711853 0.032008714973926544
-0.11518168449401855 0.05880255252122879 -0.16045323014259338
0.08179476857185364 -0.10775153338909149 -0.041566602885723114
0.044505368918180466 -0.0894206091761589 -0.029156848788261414
0.06643441319465637 -0.08690105378627777 -0.02965233474969864
0.1361261010169983 -0.0706154927611351 0.3366581201553345
-0.08411464095115662 0.07683262974023819 -0.15801581740379333
-0.08925381302833557 -0.06688976287841797 -0.03061775490641594
0.1764674335718155 -0.08139635622501373 0.39864155650138855
0.14612695574760437 -0.053927160799503326 -0.06476015597581863
-0.07105088233947754 0.23008553683757782 0.44652941823005676
-0.08538182079792023 0.19487041234970093 -0.19150973856449127
-0.09253035485744476 0.016568278893828392 0.010831797495484352
0.253627210855484 -0.09336584806442261 0.31934621930122375
-0.0893624871969223 -0.07065106928348541 -0.038545820862054825
-0.09283161163330078 -0.08372634649276733 -0.05432835593819618
-0.060463495552539825 -0.1065160483121872 -0.05436895415186882
-0.11970425397157669 0.04064427316188812 -0.01379414089024067
0.03508680313825607 -0.1120809018611908 -0.14131765067577362
-0.08068100363016129 0.19374528527259827 -0.05771476775407791
-0.029531925916671753 -0.09624422341585159 -0.04848804324865341
-0.0755569189786911 0.1600799411535263 0.01946941204369068
-0.094793900847435 -0.07580333948135376 0.05643325671553612
-0.01435619406402111 -0.09086014330387115 0.019009822979569435
-0.03768281266093254 -0.09169021248817444 -0.10911305248737335
-0.09358436614274979 -0.030029943212866783 -0.014228442683815956
-0.003485230728983879 -0.10145535320043564 0.0045464299619197845
0.332956999540329 0.03153780475258827 0.0916510671377182
0.11851143836975098 -0.0658697783946991 -0.02291443943977356
-0.12064448744058609 0.03551936894655228 0.019542474299669266
-0.08689533174037933 -0.07294002175331116 -0.05180245637893677
-0.08824432641267776 -0.0784868523478508 -0.03378032147884369
0.08688834309577942 -0.07216387242078781 0.05599404498934746
-0.10807253420352936 -0.07905333489179611 -0.2413545846939087
0.10875941067934036 -0.06910762190818787 -0.027984488755464554
-0.08788443356752396 -0.023278692737221718 0.040197715163230896
0.06363827735185623 -0.08802580833435059 0.036393992602825165
-0.07761222124099731 -0.08780815452337265 -0.04043217748403549
0.06006176769733429 -0.10910142213106155 -0.3367723822593689
0.0613073855638504 -0.09832506626844406 0.052300095558166504
-0.047076016664505005 0.10681020468473434 -0.39070600271224976
-0.09131187945604324 0.044936519116163254 -0.2674269378185272
0.0989980697631836 -0.06286199390888214 0.037820566445589066
-0.021455466747283936 -0.11697275936603546 -0.060911767184734344
-0.08595870435237885 -0.07538391649723053 -0.04619646072387695
-0.0951099619269371 -0.06447248160839081 0.058031123131513596
0.001254616305232048 -0.10738195478916168 0.013812948018312454
0.20305542647838593 -0.07874268293380737 0.034265801310539246
-0.08604522049427032 0.11732950806617737 0.2616998851299286
0.020548325031995773 -0.09089525043964386 0.04363875091075897
-0.08911508321762085 -0.07186301052570343 0.054236166179180145
0.054455190896987915 -0.08090998232364655 0.025911709293723106
-0.08160938322544098 -0.08321147412061691 0.06120609492063522
-0.09696006774902344 -0.04996996372938156 -0.02885662019252777
0.1781340390443802 -0.052143000066280365 0.05243709683418274
0.09345304220914841 -0.09297099709510803 0.3292829394340515
0.12721052765846252 -0.06881746649742126 -0.055846963077783585
-0.004347769543528557 -0.09034138172864914 -0.24021261930465698
-0.07670008391141891 -0.05869141221046448 0.09274563193321228
0.0742722749710083 -0.0716758668422699 -0.026720847934484482
-0.0912695974111557 0.010971339419484138 -0.0605873167514801
-0.1214616522192955 0.038755111396312714 0.04142787307500839
-0.028111359104514122 -0.09434281289577484 0.059130094945430756
-0.020586084574460983 -0.11388803273439407 -0.19396740198135376
-0.10999587178230286 -0.042811065912246704 0.02106376178562641
0.012519821524620056 -0.09845767915248871 0.02229566127061844
-0.08729304373264313 -0.07618866860866547 -0.03525242954492569
0.056268416345119476 -0.08946426957845688 -0.00031270831823349
0.11788414418697357 -0.09060661494731903 0.3647014796733856
-0.12082964181900024 0.0786580741405487 -0.06333665549755096
-0.10353544354438782 -0.011732229962944984 0.04370923340320587
-0.11813817173242569 0.014909958466887474 -0.15018965303897858
0.05227912962436676 -0.09205068647861481 -0.02874959073960781
-0.09727123379707336 -0.06688782572746277 -0.07050315290689468
0.03534160554409027 -0.10375799238681793 -0.041258908808231354
-0.09151610732078552 -0.06404045224189758 -0.05944177508354187
-0.09446617215871811 0.17829468846321106 0.4286614656448364
0.05680681765079498 -0.09075320512056351 -0.02768833562731743
0.05229296535253525 -0.0924205631017685 -0.03019554167985916
-0.12684784829616547 0.03854178264737129 -0.07182790338993073
0.04878346621990204 -0.08888833969831467 0.016740867868065834
0.09500518441200256 -0.09976997971534729 0.16740474104881287
-0.003325425088405609 -0.12439042329788208 0.2720124125480652
0.1170913353562355 -0.06286928802728653 0.0008383365347981453
0.10997757315635681 -0.039381690323352814 0.45411568880081177
0.0950065553188324 -0.09638843685388565 -0.07683797925710678
0.08978389948606491 -0.07700370997190475 -0.0332518070936203
-0.061394646763801575 0.10571230947971344 -0.05533097684383392
-0.10159840434789658 0.04789258912205696 -0.38996338844299316
-0.011357853189110756 -0.10265307873487473 -0.13152474164962769
-0.0972035825252533 -0.07003926485776901 0.07360722124576569
0.01779065653681755 -0.11004149168729782 -0.08799245953559875
-0.10353393107652664 0.01252906583249569 0.02214205265045166
0.05543278902769089 -0.11749590933322906 -0.07371670752763748
-0.07284222543239594 -0.0909617692232132 0.22824056446552277
-0.10745704174041748 0.013718118891119957 0.08929893374443054
-0.0874171108007431 -0.06315223127603531 0.0833066776394844
0.09990271925926208 -0.0749591812491417 0.013102483004331589
-0.08725684881210327 -0.08019155263900757 -0.040507879108190536
-0.09894861280918121 -0.05891740322113037 -0.2988288104534149
-0.013620416633784771 -0.10868687182664871 -0.046960145235061646
0.03196968510746956 -0.11068002879619598 0.13904964923858643
-0.12338116765022278 0.03939244896173477 0.34839585423469543
-0.013639267534017563 -0.10113538056612015 0.019174527376890182
-0.08600165694952011 -0.06762662529945374 -0.04750359058380127
0.057749152183532715 -0.11106683313846588 0.2950436770915985
-0.10974200069904327 0.12733463943004608 0.36847802996635437
-0.11530948430299759 0.00691559724509716 0.07807828485965729
-0.11351735144853592 0.05190335214138031 0.17384448647499084
0.21099010109901428 -0.04617771878838539 -0.0916292667388916
-0.09909406304359436 -0.033559754490852356 -0.0296965129673481
-0.09350214153528214 -0.0956680178642273 -0.10263940691947937
-0.0038030873984098434 -0.10713014751672745 0.015898531302809715
-0.10080032050609589 -0.06955952942371368 0.11272023618221283
-0.05181301757693291 -0.1030808687210083 -0.28915080428123474
-0.09817694872617722 -0.023926973342895508 0.24654199182987213
-0.09606559574604034 -0.06908231228590012 -0.05088436231017113
0.06672605127096176 -0.0903792530298233 -0.0283065065741539
0.053773846477270126 -0.09970667213201523 -0.011484382674098015
0.09102831780910492 -0.07182861119508743 -0.0390746183693409
0.13642576336860657 -0.1090240553021431 0.45690852403640747
-0.006997957825660706 -0.09857054054737091 0.019124824553728104
0.0752834603190422 -0.0803162008523941 -0.00826834887266159
-0.09633150696754456 0.13012555241584778 0.12580570578575134
0.12065967917442322 -0.08168548345565796 0.27030110359191895
0.05019042268395424 -0.08488163352012634 0.011525582522153854
0.12519197165966034 -0.0787726491689682 0.10387701541185379
0.06130339577794075 -0.09868288040161133 -0.021777348592877388
-0.10648809373378754 0.02313271537423134 0.02150198072195053
-0.08504640311002731 -0.09115522354841232 0.06684999167919159
-0.10179441422224045 0.0375509038567543 0.025972232222557068
-0.011734671890735626 -0.10591632127761841 0.029901649802923203
0.05699747055768967 -0.11132441461086273 -0.001160716637969017
0.012413645163178444 -0.12881016731262207 -0.14022190868854523
0.09799239039421082 -0.05114700645208359 0.25427576899528503
-0.09451816231012344 -0.0721324011683464 -0.05841907858848572
-0.07528287172317505 0.17831498384475708 0.24977275729179382
-0.09045305848121643 -0.07882142812013626 -0.05286281555891037
-0.05228275805711746 -0.0863380953669548 0.2823701798915863
-0.10112615674734116 0.08799704164266586 -0.015218691900372505
0.10350780189037323 -0.06883934140205383 -0.0014391802251338959
-0.11408228427171707 0.022647468373179436 -0.005809172987937927
-0.11609427630901337 -0.0080113485455513 -0.07979242503643036
-0.09990020841360092 0.12289438396692276 0.1507212519645691
-0.08005040884017944 -0.06559872627258301 0.09989739209413528
-0.08249296247959137 -0.02819669432938099 0.03222184628248215
0.031938619911670685 -0.09777473658323288 0.212459996342659
-0.12454693764448166 0.06274598836898804 0.04413840174674988
0.05833647400140762 -0.12176474928855896 -0.1673969179391861
0.08387992531061172 -0.10460022836923599 -0.2596465051174164
0.008577777072787285 -0.11672376096248627 0.18432027101516724
-0.08652257174253464 -0.08535651862621307 -0.06618797779083252
0.044506072998046875 -0.09086000919342041 0.014021346345543861
-0.011623650789260864 -0.10302535444498062 0.015849845483899117
-0.10738661885261536 -0.04586432874202728 0.0029240455478429794
-0.08118738979101181 -0.023033935576677322 0.0737173929810524
-0.09202750027179718 0.07823356986045837 0.09448251128196716
0.40907344222068787 0.04460477828979492 -0.055588677525520325
-0.01121264137327671 -0.09609885513782501 0.019414348527789116
-0.07854025810956955 0.09259624034166336 0.1216157004237175
0.13471072912216187 -0.06198039650917053 0.04128638282418251
0.09306235611438751 -0.07126566022634506 -0.033217258751392365
-0.11919701099395752 0.0196083877235651 -0.00702055124565959
0.12476019561290741 -0.05343559384346008 -0.052329905331134796
-0.019259408116340637 -0.08955904841423035 0.02035774104297161
-0.09636781364679337 -0.0027985256165266037 0.02938012219965458
-0.10974281281232834 -0.08802543580532074 -0.06115496903657913
-0.14226406812667847 0.011802008375525475 -0.18942596018314362
-0.0013588741421699524 -0.09829674661159515 0.023162730038166046
-0.08876912295818329 -0.07626073062419891 0.05463556572794914
-0.09116631746292114 0.018860310316085815 -0.009799353778362274
-0.10958510637283325 0.12206532806158066 -0.1253751963376999
0.04131878539919853 -0.09357137978076935 0.017879758030176163
-0.09054175764322281 0.13452154397964478 0.2831934094429016
-0.08600469678640366 -0.08221519738435745 0.08121992647647858
-0.10979244858026505 -0.08299196511507034 0.3793138265609741
-0.10292236506938934 -0.06937336176633835 -0.08431470394134521
0.02528829127550125 -0.09525714814662933 0.09781381487846375
-0.10567241907119751 0.12562134861946106 -0.01696592941880226
