-0.0629539042711258 0.10243397951126099 -0.0022825468331575394
-0.08601773530244827 0.12288074940443039 0.04130449891090393
0.021673904731869698 -0.0786278024315834 0.09022276848554611
-0.03263720124959946 -0.09662802517414093 0.3083811104297638
-0.07828874886035919 -0.060253988951444626 -0.02495279349386692
-0.03919394686818123 -0.05817323923110962 0.10333292186260223
-0.07782229781150818 0.06246708333492279 0.015476121567189693
-0.0788869708776474 -0.060364555567502975 -0.02851944975554943
-0.10717089474201202 -0.019729439169168472 0.15409216284751892
-0.08350301533937454 -0.0055795712396502495 0.06741589307785034
0.10653603076934814 -0.08951380103826523 0.07931133359670639
-0.07972343266010284 0.001474555116146803 0.10971143841743469
-0.08982145041227341 0.07392048090696335 0.11582596600055695
0.018019791692495346 0.3784934878349304 0.14017631113529205
-0.010451250709593296 -0.09898923337459564 -0.2674681842327118
-0.023717844858765602 -0.05834364891052246 -0.021123643964529037
0.08277903497219086 -0.08938618749380112 -0.1060134619474411
0.049073465168476105 -0.09327653050422668 0.0023009469732642174
-0.09341072291135788 0.03728654980659485 -0.199548602104187
0.02988068200647831 -0.08655377477407455 -0.046323493123054504
-0.13085776567459106 0.06331396102905273 0.33057281374931335
0.24868768453598022 -0.08000101149082184 0.19961480796337128
-0.048678696155548096 0.12761971354484558 -0.12332598865032196
-0.021536141633987427 -0.0891500860452652 0.023402201011776924
-0.0779004842042923 -0.07558520138263702 0.17332440614700317
-0.09395047277212143 0.010878765024244785 0.08848686516284943
-0.09364885091781616 -0.09410509467124939 0.38653746247291565
-0.02302432991564274 -0.11691524088382721 -0.10988298058509827
-0.09397213906049728 0.03718548268079758 0.04285397753119469
-0.10832992196083069 0.01252503041177988 0.2754175364971161
-0.0710802674293518 -0.0934906154870987 -0.11648822575807571
0.08085166662931442 -0.09179574251174927 0.09885211288928986
-0.0866616889834404 -0.05123775824904442 0.052380628883838654
-0.09999494254589081 0.012555412016808987 0.009115120396018028
-0.03637894615530968 -0.07672051340341568 0.0571477934718132
-0.10072340071201324 0.026803288608789444 0.058087095618247986
0.35577550530433655 0.051314327865839005 0.22421449422836304
0.10265018790960312 -0.08085823059082031 -0.027252011001110077
-0.0947626456618309 -0.05369696021080017 0.02565442956984043
-0.07195757329463959 -0.06163203343749046 -0.025652669370174408
-0.06520970910787582 0.088200144469738 0.07676976174116135
-0.07469940185546875 -0.07337197661399841 -0.05407991260290146
-0.08926369994878769 -0.007468804717063904 0.06965075433254242
-0.1304405927658081 0.17712055146694183 0.10427495092153549
-0.04822622239589691 0.1270127296447754 -0.15491309762001038
-0.07784096151590347 -0.059934280812740326 -0.03444159775972366
-0.1143464595079422 0.038804154843091965 0.06629134714603424
-0.052972182631492615 -0.08690051734447479 0.2755158245563507
-0.005765183828771114 -0.08024553954601288 0.11593885719776154
0.04774468019604683 -0.10591170191764832 -0.0508008636534214
4.458986222743988e-05 -0.07872256636619568 0.012573087587952614
-0.11118611693382263 0.056414149701595306 -0.010287683457136154
0.11381394416093826 -0.08181795477867126 -0.03231078386306763
-0.08927987515926361 0.03560445085167885 0.0696210116147995
0.04156382381916046 -0.09126387536525726 0.01149592362344265
0.13122978806495667 -0.06874214112758636 -0.3569978177547455
0.2006375789642334 -0.07830475270748138 0.10377626121044159
0.10550270974636078 -0.08847761899232864 0.044242169708013535
0.010144861415028572 -0.09320759773254395 0.023731345310807228
0.024169526994228363 -0.1042608842253685 0.32718250155448914
-0.08069733530282974 -0.06492309272289276 -0.03426919877529144
-0.10020667314529419 0.05055221915245056 0.034013740718364716
0.03191308304667473 -0.08693110942840576 0.16645152866840363
-0.08278577774763107 0.013208204880356789 0.011318672448396683
0.04560578987002373 -0.10626289248466492 0.013322821818292141
-0.08445622026920319 -0.07068349421024323 0.15981002151966095
0.05569511651992798 -0.09805585443973541 -0.10181272774934769
-0.11332589387893677 0.1057046577334404 0.16539596021175385
0.0020983414724469185 -0.0807415097951889 0.015113884583115578
-0.10955893248319626 0.04504089057445526 0.13579505681991577
-0.09505508840084076 0.03884796053171158 0.17819976806640625
-0.09242046624422073 -0.04918326437473297 0.018024472519755363
0.013411149382591248 -0.11551772803068161 0.26949015259742737
0.00046642462257295847 -0.0835859477519989 0.019551143050193787
-0.03694839030504227 -0.041591010987758636 0.17092494666576385
0.051624082028865814 -0.07875020802021027 -0.08274786919355392
-0.08729752153158188 -0.03783323988318443 -0.33185842633247375
-0.022831302136182785 -0.07304039597511292 0.017361372709274292
0.09265569597482681 -0.09684107452630997 -0.1276029795408249
0.04741324484348297 -0.09268850833177567 -0.024892624467611313
0.02482077106833458 -0.09356163442134857 -0.02079171873629093
0.08893316984176636 -0.06946955621242523 -0.004818703979253769
0.1289457380771637 -0.039455290883779526 -0.1433168202638626
0.06818220764398575 -0.10230158269405365 0.1949445605278015
0.033744219690561295 -0.08480609208345413 0.0037851519882678986
-0.10834936052560806 0.04299519211053848 -0.14079153537750244
-0.07686866074800491 -0.08370421081781387 0.07526124268770218
0.11791065335273743 -0.06146572530269623 -0.0005960278213024139
-0.10886332392692566 -0.017271365970373154 0.3486579656600952
0.033960796892642975 -0.09686022996902466 -0.03385895490646362
-0.10709718614816666 0.03938126936554909 0.023759610950946808
-0.084120973944664 0.0597781240940094 -0.16834785044193268
0.12017610669136047 -0.050015244632959366 -0.19073405861854553
0.05186290293931961 -0.09087652713060379 -0.018294017761945724
0.004350494593381882 -0.08154162019491196 0.013113530352711678
-0.022317245602607727 -0.0882086232304573 0.08737439662218094
-0.11543826758861542 0.020887991413474083 -0.10946644842624664
0.09267227351665497 -0.09249787032604218 0.22960475087165833
0.052085377275943756 -0.08077579736709595 -0.0182644035667181
0.011948451399803162 -0.0898425430059433 0.005731496959924698
-0.00947832316160202 -0.06943913549184799 0.03735500946640968
-0.027136243879795074 -0.11010148376226425 -0.06717433780431747
0.09971897304058075 -0.07620154321193695 -0.011924095451831818
-0.1080847978591919 0.09453512728214264 -0.0002517774701118469
-0.028852470219135284 0.12808486819267273 0.12135016918182373
-0.1166943609714508 0.05584893003106117 0.17035748064517975
-0.10897819697856903 0.12095405906438828 -0.010373741388320923
0.08661356568336487 -0.07710320502519608 -0.012148171663284302
0.19240914285182953 -0.08056657016277313 -0.21939179301261902
0.08564253896474838 -0.08707202970981598 -0.01586923375725746
-0.08164610713720322 -0.0370614267885685 -0.027000131085515022
0.08693750947713852 -0.09773619472980499 -0.08576036244630814
-0.08868414163589478 0.015176475048065186 -0.1629408299922943
0.12243054807186127 -0.06990200281143188 0.013200411573052406
0.10396599769592285 -0.07618185877799988 0.011710798367857933
0.09014374017715454 -0.08014023303985596 -0.03564503416419029
0.08821146190166473 -0.08021600544452667 -0.008977985009551048
0.095146544277668 -0.07703635096549988 -0.13237664103507996
-0.0950380265712738 0.1920309066772461 -0.11881086230278015
-0.10927311331033707 -0.03903588652610779 0.27300626039505005
-0.02256906032562256 -0.08258939534425735 0.02163410745561123
-0.06574787199497223 -0.05030478537082672 -0.017198406159877777
0.04582713544368744 -0.08792135119438171 -0.015166804194450378
-0.05990684777498245 -0.07758490741252899 0.068382628262043
-0.01953933760523796 -0.07018037885427475 -0.018682748079299927
-0.09255577623844147 -0.00392993213608861 0.059929944574832916
0.11336737871170044 -0.06882224977016449 -0.002673432230949402
0.04478354752063751 -0.07412394136190414 0.04403141513466835
0.05639016255736351 -0.09532594680786133 0.03458310291171074
-0.072782002389431 -0.01940969005227089 -0.007211912423372269
-0.06881406903266907 0.15471908450126648 0.1877380907535553
0.05536476522684097 -0.08874227106571198 -0.012731675058603287
-0.08994749188423157 -0.038711752742528915 0.06369735300540924
0.1035764291882515 -0.08768338710069656 -0.11450095474720001
-0.08663564920425415 -0.0483720526099205 0.04544791579246521
-0.009983246214687824 -0.08890371769666672 -0.14625708758831024
-0.09660268574953079 0.030889391899108887 0.1304386854171753
0.005210979375988245 -0.08512498438358307 0.03369634598493576
-0.07470975816249847 -0.08196937292814255 -0.03371965512633324
-0.11467717587947845 0.08113352209329605 0.28095120191574097
-0.08309395611286163 0.07451000809669495 -0.22048033773899078
0.03655453026294708 -0.08248915523290634 -0.015284361317753792
-0.08173821866512299 -0.0633644312620163 -0.030680203810334206
-0.030067456886172295 -0.0737796276807785 0.19058267772197723
-0.10001623630523682 -0.015724077820777893 -0.04245664179325104
-0.06966345012187958 -0.0682331994175911 -0.04499330371618271
-0.015948917716741562 -0.09518733620643616 0.2044043093919754
0.08454354107379913 -0.06759404391050339 0.044674500823020935
0.004236010834574699 -0.09650833904743195 0.024836549535393715
-0.10993078351020813 0.04321125149726868 0.003384064882993698
-0.08850198984146118 -0.06861691921949387 -0.03287448361515999
-0.11179256439208984 0.0745714083313942 -0.27739039063453674
-0.06928691267967224 -0.06301264464855194 0.06866049766540527
-0.08325067907571793 0.17111897468566895 -0.27619531750679016
0.07990309596061707 -0.07428784668445587 0.006258048117160797
-0.10999531298875809 -0.024592764675617218 0.06167082488536835
-0.08591894060373306 -0.02908949926495552 0.10163763165473938
-0.10310406237840652 0.1099073588848114 0.18626804649829865
0.03401312977075577 -0.08738547563552856 0.014282245188951492
0.06690937280654907 -0.07912889868021011 0.16031493246555328
0.015314659103751183 -0.09950044006109238 -0.021120382472872734
-0.09070026874542236 0.1092589944601059 -0.10266119986772537
-0.053130388259887695 -0.05612923577427864 -0.0882733166217804
-0.003580787219107151 -0.10181035101413727 0.02747218869626522
0.1430598944425583 -0.021400388330221176 -0.08864162862300873
-0.09661523252725601 -0.05605686455965042 0.015301692299544811
0.10622728615999222 -0.07581770420074463 -0.00955764576792717
-0.10618032515048981 0.03467542678117752 0.0018934495747089386
0.04433993250131607 -0.08760597556829453 -0.010677522048354149
0.14469404518604279 -0.03651151433587074 -0.003812720999121666
0.24320591986179352 -0.08298637717962265 0.4099152088165283
-0.08259622007608414 0.14577992260456085 -0.01892269402742386
0.0009669405408203602 -0.08648373186588287 0.26058101654052734
-0.07368864119052887 -0.06030358374118805 -0.038739074021577835
-0.07931578159332275 -0.072011798620224 -0.06123262643814087
-0.07915977388620377 0.0644683986902237 0.10458585619926453
-0.08045300841331482 -0.06914268434047699 -0.0464581623673439
0.2157619595527649 0.0003617405891418457 0.36371517181396484
-0.08833535760641098 0.02579965814948082 0.1553262174129486
-0.09161397814750671 0.2486366629600525 0.25382354855537415
-0.11167698353528976 0.008815855719149113 0.01869853585958481
-0.10964414477348328 0.029177073389291763 -0.32355502247810364
0.03788219392299652 -0.09242426604032516 0.42858630418777466
-0.08363897353410721 -0.05850952863693237 -0.037016887217760086
-0.003449101001024246 -0.0473051443696022 -0.46260106563568115
0.09343228489160538 -0.10446822643280029 -0.17863507568836212
-0.10842753201723099 0.08448725938796997 -0.0886230543255806
-0.08071432262659073 -0.034867048263549805 0.038214199244976044
-0.08343595266342163 0.03448272496461868 0.10383984446525574
-0.11502636969089508 0.03411754220724106 0.013281019404530525
-0.08327417820692062 0.03926999494433403 -0.1352934092283249
0.10875752568244934 -0.07769142836332321 -0.14607323706150055
0.07745745033025742 -0.10535535216331482 0.14867646992206573
0.0072953118942677975 -0.10550782084465027 -0.1362970769405365
0.006980763748288155 -0.10237935185432434 -0.05546499043703079
0.11581060290336609 -0.06643754243850708 0.004470689222216606
0.29494863748550415 -0.07023953646421432 0.10687871277332306
0.08170545101165771 -0.08218588680028915 -0.022374961525201797
0.0033450592309236526 -0.08495095372200012 0.014255134388804436
0.047635339200496674 -0.08127841353416443 0.014418188482522964
0.019122181460261345 0.35729551315307617 -0.0659245178103447
-0.08428129553794861 0.031670574098825455 -0.11523786932229996
-0.09266353398561478 0.13824492692947388 0.1413416713476181
0.10927850008010864 -0.08340675383806229 -0.05463021621108055
-0.09152507036924362 -0.0030613839626312256 0.0640917420387268
-0.07484406232833862 -0.06754428148269653 0.026929929852485657
0.05922739580273628 -0.07486465573310852 -0.20158077776432037
0.03563416749238968 -0.09428060799837112 -0.11293689906597137
0.0780801847577095 -0.09631306678056717 0.08108910173177719
-0.07859177887439728 -0.0630888044834137 0.04966891184449196
-0.08605697751045227 -0.05807512626051903 0.09249308705329895
0.10193386673927307 -0.07039472460746765 -0.008851829916238785
-0.0865170955657959 0.016495738178491592 0.0264698788523674
0.09290015697479248 -0.08110662549734116 -0.005951825529336929
-0.05089222639799118 0.151696115732193 -0.06074552237987518
-0.09822478890419006 0.017394235357642174 0.037114888429641724
-0.09176532179117203 0.11294285953044891 0.08281322568655014
0.11850304901599884 -0.07580657303333282 -0.0166441909968853
-0.10071530938148499 0.10750216245651245 -0.010985750705003738
-0.10984525084495544 0.010922434739768505 0.008960580453276634
-0.013717250898480415 -0.07322438061237335 -0.01908358559012413
-0.02742079459130764 -0.060933735221624374 0.2966606914997101
-0.06696875393390656 -0.06878235936164856 -0.04562656581401825
-0.045209068804979324 -0.038067422807216644 0.26921790838241577
-0.09543642401695251 0.022715110331773758 0.05407357215881348
-0.046533070504665375 -0.07793965935707092 -0.20339079201221466
-0.06952442228794098 -0.010292530059814453 0.07171283662319183
-0.057150159031152725 0.14333733916282654 0.026297884061932564
0.009138599038124084 -0.08346579223871231 0.01152915321290493
-0.06371015310287476 0.020246410742402077 -0.38498950004577637
-0.08763355016708374 -0.027336981147527695 0.0009395955130457878
-0.0746135339140892 -0.08393401652574539 -0.07629582285881042
-0.07238823175430298 -0.018688561394810677 -0.022847682237625122
0.05686231702566147 -0.08953607082366943 -0.0770241767168045
-0.10123942792415619 0.07605403661727905 0.029700323939323425
-0.07614601403474808 -0.04970429465174675 -0.11450594663619995
-0.08846443891525269 0.06257174909114838 0.1473829746246338
0.03444024175405502 -0.11337529867887497 0.3977271020412445
0.06245984882116318 -0.07971790432929993 0.004113541916012764
0.09437145292758942 -0.08136434853076935 -0.019033562391996384
-0.012004136107861996 -0.10168004035949707 0.34851062297821045
0.05489998310804367 -0.09430550038814545 0.03317346051335335
-0.010683247819542885 -0.11384370923042297 -0.033869363367557526
0.10490906238555908 -0.08226460218429565 -0.004749925807118416
-0.08375320583581924 -0.06800001114606857 -0.014268881641328335
-0.11836495250463486 0.04177277162671089 0.4106629192829132
0.09765198826789856 -0.10074231773614883 0.3761039972305298
0.11015702784061432 -0.07453714311122894 -0.004930585622787476
-0.0858306884765625 0.15624339878559113 0.30012014508247375
-0.023022135719656944 -0.07755202054977417 0.015077990479767323
-0.08921124041080475 0.01538180373609066 0.01855875365436077
-0.07274150103330612 -0.06358443200588226 -0.026883771643042564
-0.05303264409303665 0.12261946499347687 -0.2814255952835083
0.1342289000749588 -0.07359643280506134 -0.05246422439813614
0.10360816866159439 -0.06304024159908295 0.09261053055524826
0.04454570263624191 -0.08391624689102173 0.009539544582366943
-0.07968834787607193 -0.013700831681489944 0.3051486313343048
-0.00484112836420536 -0.08356595039367676 0.007174989208579063
0.13496997952461243 -0.06429187953472137 -0.06341471523046494
0.009475544095039368 -0.08320802450180054 0.02065381407737732
-0.09418267756700516 0.02570487931370735 0.009414264932274818
-0.09260343015193939 0.018992464989423752 0.03455529734492302
0.3826054632663727 0.05123790353536606 0.39152973890304565
-0.07613389194011688 -0.06848595291376114 -0.031130759045481682
-0.07947643846273422 0.09427040815353394 -0.2954636812210083
-0.07714284956455231 -0.004125255160033703 0.08504407107830048
-0.04602104797959328 -0.08946450054645538 0.14862336218357086
0.02615140751004219 -0.08847253024578094 0.07648161053657532
-0.0934486985206604 0.027742601931095123 0.04941710829734802
-0.07832891494035721 -0.0662766695022583 -0.03797232359647751
0.058330439031124115 -0.09291309863328934 -0.007464144378900528
0.03934268280863762 -0.09094351530075073 -0.024240287020802498
-0.1019764319062233 -0.009831065312027931 -0.004486173391342163
-0.08056517690420151 -0.058101385831832886 -0.030948549509048462
-0.08251776546239853 -0.061525147408246994 -0.026665255427360535
-0.060172874480485916 0.13359321653842926 0.11427028477191925
0.077823206782341 -0.08306517452001572 0.005129407159984112
-0.10972681641578674 0.04672117903828621 0.10396751761436462
-0.02454681135714054 -0.08712597191333771 -0.05603247508406639
0.10482620447874069 -0.0788385197520256 -0.020795652642846107
-0.0018863249570131302 -0.12019230425357819 -0.324674516916275
0.060008563101291656 -0.07473474740982056 0.015304941684007645
-0.06767325848340988 0.08141922950744629 0.032699231058359146
-0.0618181973695755 -0.04910165071487427 0.08186447620391846
0.014583341777324677 -0.09855882823467255 0.003013861831277609
-0.10447250306606293 -0.03486037254333496 -0.1395493447780609
-0.09331825375556946 0.08547685295343399 -0.01433618739247322
0.005453341640532017 -0.07847072184085846 0.023497968912124634
-0.12663868069648743 0.11279071867465973 0.003469906747341156
0.12279316782951355 -0.06964439898729324 0.019712839275598526
-0.021297596395015717 0.05998339131474495 -0.42503049969673157
-0.07873048633337021 -0.07031159847974777 -0.03562977910041809
0.10599923133850098 -0.07311350107192993 0.013260070234537125
-0.058023303747177124 -0.06998009234666824 -0.32849836349487305
0.0022579925134778023 -0.07783155888319016 0.012686573900282383
0.12942731380462646 -0.08479910343885422 -0.21219708025455475
0.11576855182647705 -0.08318433165550232 0.012613015249371529
-0.024555806070566177 -0.10834053158760071 0.03447817638516426
-0.1142323836684227 0.10943059623241425 0.06764674931764603
0.06489091366529465 -0.08488085865974426 -0.0526912659406662
-0.10720467567443848 -0.03021303564310074 0.4006412625312805
0.09043865650892258 -0.07759887725114822 -0.014757372438907623
0.060420311987400055 -0.08938504755496979 0.018742376938462257
-0.05727566033601761 -0.09897418320178986 -0.0506632924079895
0.0502791702747345 -0.08654710650444031 -0.021648772060871124
-0.0785299688577652 -0.047171883285045624 -0.011039583943784237
0.006912060081958771 -0.08577480167150497 0.031912125647068024
-0.09454309940338135 -0.014372466132044792 -0.13365866243839264
0.011833153665065765 -0.08419228345155716 0.01362275518476963
0.0635063573718071 -0.0804491713643074 0.05080524832010269
-0.09205532819032669 0.015299050137400627 0.0127677321434021
0.01671593450009823 -0.12122641503810883 -0.09481292963027954
-0.014594494365155697 -0.0756426677107811 -0.059567637741565704
0.0059916358441114426 -0.07395704090595245 0.02976207435131073
-0.08662189543247223 -0.03475600853562355 -0.020004387944936752
-0.08709052205085754 -0.05804980546236038 0.11140159517526627
-0.08241762220859528 0.01928994059562683 0.009982104413211346
0.04722188413143158 -0.0898398756980896 0.0783650204539299
-0.08943434804677963 0.03960511460900307 0.011284872889518738
-0.04248090833425522 -0.10583505034446716 0.3585665225982666
-0.08340132981538773 -0.06953247636556625 -0.11741054803133011
-0.1001499593257904 -0.06220629811286926 0.429139107465744
0.0067657288163900375 -0.0809050127863884 0.013893304392695427
0.10120293498039246 -0.07515180855989456 -0.017551131546497345
0.050890132784843445 -0.08554164320230484 0.04264725744724274
-0.07243557274341583 -0.06287568807601929 -0.036634400486946106
-0.08332563191652298 -0.03781304508447647 -0.021202921867370605
-0.09722284227609634 0.02645055577158928 0.018402237445116043
0.18622924387454987 -0.08012498915195465 0.24738809466362
0.08308765292167664 -0.09899846464395523 0.16347160935401917
-0.08428382873535156 0.005655389279127121 -0.20956279337406158
-0.114234060049057 0.019891660660505295 0.09460052847862244
-0.1094643622636795 0.05216146260499954 0.00539923831820488
-0.059944938868284225 0.11446782201528549 -0.22046500444412231
0.16264183819293976 -0.0750618577003479 0.1904640942811966
0.0861472636461258 -0.02753112092614174 -0.4318021535873413
0.12625344097614288 -0.04908822476863861 0.009523650631308556
-0.006164277903735638 -0.07910646498203278 0.01738208904862404
-0.0843413695693016 0.018961835652589798 0.016892192885279655
-0.025711381807923317 -0.07823912054300308 0.009422408416867256
-0.08306784927845001 -0.06274006515741348 0.06457574665546417
-0.10055400431156158 0.06501732766628265 0.060688845813274384
-0.07973694056272507 -0.06060119718313217 -0.03604786470532417
-0.11704330891370773 0.04115542769432068 -0.05739060416817665
-0.09344235062599182 0.01922435872256756 0.014951678924262524
-0.07884249091148376 -0.07626616954803467 -0.039168260991573334
-0.07597997039556503 -0.0696084275841713 -0.020916897803544998
0.08568163216114044 -0.06633850932121277 -0.005633838474750519
0.048326022922992706 -0.07779446244239807 -0.01814896985888481
0.029647788032889366 -0.0811828076839447 -0.16466055810451508
0.12782490253448486 -0.07512553781270981 0.036682210862636566
0.010150793939828873 -0.08540845662355423 0.0179229024797678
0.10241600126028061 -0.06062912568449974 -0.0019549988210201263
-0.11121346056461334 0.04399186745285988 0.37446680665016174
0.04660719633102417 -0.08504656702280045 0.0100668054074049
0.003353813663125038 -0.079795703291893 0.02159869112074375
-0.07937505841255188 -0.040696755051612854 -0.012840021401643753
0.02568608522415161 -0.08413278311491013 0.12696343660354614
0.11917594075202942 -0.06683763861656189 -0.10822687298059464
0.11666751652956009 -0.0709921270608902 -0.012210964225232601
0.055148646235466 -0.0872488021850586 -0.013761874288320541
-0.10224674642086029 0.01618986204266548 0.0044113025069236755
0.06584618985652924 -0.08502036333084106 -0.01654733344912529
-0.08359464257955551 -0.0630464181303978 -0.025790395215153694
0.04037005454301834 -0.08080561459064484 0.10640464723110199
0.30088070034980774 0.01282818615436554 -0.1816847324371338
-0.10892291367053986 0.018228888511657715 0.20080693066120148
-0.01721971482038498 -0.09401479363441467 0.03459128364920616
-0.02975824847817421 -0.07924878597259521 -0.12664097547531128
-0.08776340633630753 -0.0692615881562233 0.056701600551605225
-0.10238814353942871 0.08281411230564117 0.43988725543022156
-0.07753196358680725 -0.07432298362255096 0.2842819392681122
-0.10121473670005798 0.04950031638145447 0.005984718911349773
-0.08956444263458252 0.11109140515327454 0.38631096482276917
0.09397117793560028 -0.07278558611869812 -0.02349693328142166
-0.03352164104580879 -0.06999461352825165 0.14732179045677185
-0.10564464330673218 0.040851835161447525 0.011185592971742153
-0.10362090170383453 0.003691626712679863 -0.06348338723182678
-0.05529431998729706 -0.07687344402074814 0.0695677250623703
-0.08139820396900177 -0.0755355954170227 -0.01494245883077383
-0.08578449487686157 -0.05579826235771179 0.015985067933797836
0.023433012887835503 -0.12422853708267212 -0.2826741933822632
-0.07124555855989456 0.027781501412391663 -0.036707114428281784
-0.00073251873254776 -0.05222326144576073 -0.3427395224571228
-0.08988592028617859 -0.01996406726539135 0.0018673152662813663
-0.10314999520778656 0.029794005677103996 0.11301644146442413
-0.08993390202522278 0.000592363066971302 0.01622539944946766
-0.10009776800870895 0.09754322469234467 -0.06343971937894821
-0.08635967969894409 0.06822451949119568 -0.009086215868592262
0.0608087033033371 -0.08511187881231308 -0.022994276136159897
-0.08214565366506577 -0.05614249408245087 -0.14249436557292938
-0.08731971681118011 0.013059933669865131 0.021619221195578575
-0.08754583448171616 0.01510284747928381 0.07990359514951706
-0.09830856323242188 0.09326687455177307 0.03375551477074623
0.05556119233369827 -0.08484316617250443 -0.023335209116339684
-0.07910864055156708 -0.05778433382511139 -0.03317716717720032
0.055916767567396164 -0.08359766006469727 -0.0025718696415424347
0.11646012961864471 -0.08898106217384338 -0.012063810601830482
-0.11798988282680511 0.07213416695594788 0.11476947367191315
-0.07446478307247162 -0.0640423446893692 -0.02889890782535076
-0.09597095847129822 0.11803828924894333 -0.06772148609161377
-0.10783683508634567 -0.05132654681801796 0.013187152333557606
-0.09559472650289536 0.019334906712174416 0.02178228460252285
0.008633889257907867 -0.0661289393901825 0.21385851502418518
0.09555734694004059 -0.07943210005760193 -0.0033958996646106243
0.07818499952554703 -0.08502448350191116 0.0009112218394875526
-0.10887680947780609 0.11545442789793015 0.29455074667930603
0.11231379210948944 -0.08710191398859024 -0.10070168226957321
0.1057027205824852 -0.08873619884252548 0.011448584496974945
0.00732981413602829 -0.1082892045378685 0.11832992732524872
0.025353359058499336 0.013885745778679848 -0.5574884414672852
0.08564470708370209 -0.07025256752967834 -0.01949056051671505
0.08258072286844254 -0.08918461203575134 -0.039862312376499176
0.09144596755504608 -0.08126477152109146 0.01604045182466507
-0.05574164167046547 -0.07060396671295166 0.07777281105518341
-0.001575518399477005 -0.09712810814380646 0.3937152326107025
0.0020954646170139313 -0.08300518244504929 0.006379951722919941
-0.08729173988103867 0.035619162023067474 0.07227344810962677
-0.08484768122434616 -0.05290767922997475 -0.038146574050188065
0.04754845052957535 -0.1110876202583313 -0.05080479010939598
0.15217457711696625 -0.08831943571567535 -0.1435662806034088
0.04726950824260712 -0.08388250321149826 -0.01898016780614853
-0.07464541494846344 -0.03126018866896629 0.048061128705739975
-0.08564689755439758 0.000396440620534122 -0.12298718094825745
-0.09856293350458145 0.05233083665370941 0.02688337303698063
0.12839549779891968 -0.08589739352464676 -0.0024883933365345
-0.08727355301380157 -0.05105415731668472 -0.05577286332845688
-0.08516412228345871 0.10829988121986389 0.03176447004079819
-0.05423213541507721 -0.10942338407039642 -0.17853040993213654
-0.0809735432267189 0.08529675006866455 -0.16476944088935852
-0.092068612575531 0.10081648081541061 0.01464431919157505
-0.08346308767795563 -0.06437645107507706 0.027568966150283813
-0.09111694991588593 -0.04498274624347687 -0.014107882976531982
-0.0921773612499237 -0.049323368817567825 0.014368648640811443
-0.07712946832180023 -0.07058904320001602 -0.030722282826900482
-0.12275158613920212 0.06150486320257187 0.24631768465042114
-0.10261325538158417 -0.06342510133981705 -0.11536853015422821
-0.12756192684173584 0.1484004110097885 -0.1606629192829132
0.127718985080719 -0.07978066056966782 0.1249871626496315
-0.06440424919128418 -0.02934669703245163 -0.004805363714694977
-0.06765452027320862 0.1302272230386734 0.19171719253063202
-0.12840300798416138 0.11437613517045975 -0.07996252179145813
-0.11414296925067902 -0.049531929194927216 -0.06581561267375946
-0.05562186613678932 -0.09742471575737 0.08742236346006393
-0.13077449798583984 0.0894353911280632 0.37255263328552246
-0.06796407699584961 -0.08531279861927032 -0.03542675822973251
0.04178381711244583 -0.0891897976398468 -0.03800462931394577
-0.09506257623434067 0.08224932104349136 0.1485370695590973
-0.049563657492399216 -0.04656875878572464 -0.15176381170749664
0.08278112858533859 -0.07640460133552551 -0.013659333810210228
-0.06945458054542542 -0.07304538786411285 -0.03394407778978348
0.0778835117816925 -0.1069214716553688 0.4052944779396057
-0.09522748738527298 0.2397913932800293 0.029715625569224358
-0.07220283150672913 -0.0702606812119484 0.07714749127626419
-0.09231194853782654 -0.020426765084266663 -0.02826467528939247
-0.07900658249855042 -0.057344965636730194 -0.02640555426478386
-0.004726367071270943 -0.042056746780872345 0.12805384397506714
-0.08235038816928864 0.13566283881664276 -0.08710063248872757
-0.0745306983590126 -0.07624958455562592 0.06631043553352356
0.047189682722091675 -0.09883983433246613 -0.062036819756031036
0.13620387017726898 -0.04014104977250099 0.060897909104824066
-0.07975713163614273 -0.062440045177936554 -0.03335099294781685
-0.0743379145860672 -0.060377832502126694 -0.02726595848798752
0.04288555681705475 -0.08611448854207993 0.04176827520132065
0.1074175015091896 -0.07981454581022263 -0.04782900586724281
0.0974671021103859 -0.0832512229681015 0.004452435299754143
0.11327061057090759 -0.06922820210456848 -0.006527746096253395
0.17148441076278687 -0.03515152633190155 0.17926718294620514
0.05371560901403427 -0.10038706660270691 -0.24735203385353088
0.05549011752009392 -0.09920276701450348 -0.11608020216226578
-0.08407554775476456 -0.07141553610563278 -0.04011686518788338
-0.11144578456878662 0.08323158323764801 -0.04785927012562752
0.04442862421274185 -0.08503895998001099 -0.004464366938918829
0.08997145295143127 -0.08131039142608643 0.062034353613853455
-0.06564655900001526 -0.05512136220932007 0.12418532371520996
0.06157911568880081 -0.09313862025737762 0.22265218198299408
-0.06701787561178207 -0.07597853988409042 0.0290432907640934
-0.10386385023593903 0.05134270712733269 -0.019920185208320618
-0.0831889882683754 -0.05823572725057602 -0.04549800977110863
-0.00138092041015625 -0.10504920780658722 0.02126067504286766
0.08431033790111542 -0.05633467063307762 -0.23323366045951843
0.009622807614505291 -0.0828409269452095 0.004595736041665077
0.02978464961051941 -0.12420635670423508 -0.11964618414640427
0.10515301674604416 -0.0709795132279396 -0.010894603095948696
-0.04968169704079628 0.054684631526470184 -0.07354523241519928
-0.04778427630662918 -0.0781090259552002 0.12526316940784454
0.17417554557323456 -0.08007709681987762 0.00612996518611908
-0.10184759646654129 0.031683966517448425 0.11187497526407242
-0.06924767792224884 -0.07066841423511505 -0.05006641522049904
-0.11231211572885513 0.07367341220378876 0.027104035019874573
-0.002077952027320862 0.03631209582090378 0.42515236139297485
-0.08015747368335724 0.012471103109419346 -0.019350381568074226
-0.005743058398365974 -0.08359947800636292 0.015958141535520554
0.10396972298622131 -0.08653046190738678 0.17524264752864838
-0.11760900169610977 0.005645801778882742 -0.25516849756240845
-0.09711069613695145 -0.05616241693496704 -0.16698533296585083
-0.09003498405218124 -0.04548916220664978 0.10821180790662766
-0.08223281800746918 -0.07592977583408356 -0.08171193301677704
-0.11522188037633896 0.05193229019641876 0.2303287237882614
0.0839071199297905 -0.061562687158584595 -0.023670556023716927
-0.0851474404335022 -0.02091410383582115 0.0016093557933345437
-0.13123036921024323 0.10394534468650818 0.11198188364505768
-0.06088002398610115 -0.10623735189437866 0.14751465618610382
0.008671896532177925 -0.11769817769527435 -0.21949484944343567
0.13547149300575256 -0.05678883567452431 -0.08365877717733383
-0.08669478446245193 -0.05082983151078224 0.049199774861335754
0.1179356500506401 -0.045091934502124786 0.1153402328491211
-0.06820884346961975 -0.10262754559516907 0.03096850961446762
-0.07251366227865219 -0.027296729385852814 0.15930023789405823
-0.016970060765743256 -0.08165037631988525 0.02456243708729744
-0.08025240898132324 0.019375348463654518 -0.11285421997308731
-0.009584229439496994 -0.07456772029399872 0.023470543324947357
-0.06165558472275734 0.13843227922916412 0.14029428362846375
-0.11089953780174255 0.03161758929491043 -0.0013829376548528671
0.12550078332424164 -0.0677095577120781 0.09489482641220093
0.06028025597333908 -0.08292337507009506 -0.01717119850218296
-0.09704519808292389 0.03217964619398117 0.09009069949388504
-0.0010745655745267868 -0.061211541295051575 0.2373959869146347
0.07646684348583221 -0.08821205794811249 0.10848843306303024
-0.08659622073173523 0.017655987292528152 0.013301937840878963
0.03382706642150879 -0.09236433357000351 -0.07455942779779434
-0.060795605182647705 -0.06327152252197266 0.14251302182674408
-0.08918823301792145 0.02214832976460457 0.014164276421070099
-0.007699114736169577 -0.103965625166893 0.0642424002289772
0.042746663093566895 -0.10028228163719177 0.010885474272072315
-0.1198401153087616 0.08113612979650497 0.2192518264055252
0.012305056676268578 0.41315364837646484 0.40313032269477844
0.0652126669883728 -0.10010138154029846 0.3376811444759369
0.08483383059501648 -0.0759899765253067 0.002596398815512657
0.009568583220243454 -0.08325473219156265 0.02060195431113243
-0.08582144975662231 0.12841278314590454 0.08978129178285599
-0.0570586696267128 0.16678127646446228 0.07403592765331268
-0.10391607880592346 0.01660849153995514 0.2974397540092468
-0.11923592537641525 0.11013039946556091 0.4105374217033386
-0.11174764484167099 0.055889688432216644 -0.015136400237679482
-0.025808870792388916 0.14113390445709229 0.014600449241697788
-0.10349443554878235 0.09184551239013672 -0.1963285207748413
-0.10745497792959213 0.054916638880968094 0.1853143274784088
0.020209865644574165 -0.1222403272986412 0.01451009139418602
0.0011160639114677906 -0.08056819438934326 0.006829403806477785
0.062014661729335785 -0.08470410108566284 -0.021651089191436768
-0.10488647222518921 0.09454220533370972 -0.0023253392428159714
-0.08735901862382889 0.04219083487987518 0.12176425009965897
0.06756161153316498 -0.08840189129114151 -0.02017180249094963
-0.07517033815383911 0.11101411283016205 0.10580981522798538
0.005996775813400745 -0.08864672482013702 0.004732714965939522
-0.10166269540786743 0.09125351160764694 0.06626036763191223
0.10596004873514175 -0.09226641058921814 -0.06848637014627457
-0.07447007298469543 -0.05996415764093399 -0.03368951007723808
0.07048825919628143 -0.10003124177455902 0.2616407573223114
-0.021360885351896286 -0.07744289934635162 0.05885597690939903
0.07865716516971588 -0.09791217744350433 0.03318851441144943
-0.01396698784083128 -0.07328630983829498 -0.017069775611162186
-0.09271038323640823 0.11207686364650726 0.04073221608996391
0.14085699617862701 -0.08225783705711365 -0.07559916377067566
-0.07294820249080658 -0.0029699578881263733 -0.15979690849781036
-0.08544642478227615 0.10375280678272247 -0.004933565855026245
-0.10707635432481766 0.07508046180009842 0.004625722765922546
-0.07701493799686432 -0.06292641907930374 -0.042514849454164505
-0.08362928032875061 -0.017412742599844933 0.06662718951702118
-0.10645930469036102 0.04527001827955246 0.015044061467051506
-0.09210843592882156 0.010824300348758698 0.01661723293364048
-0.0001869050320237875 -0.08073760569095612 0.01947048120200634
-0.08313046395778656 0.2233799248933792 0.19098307192325592
-0.015933703631162643 -0.07824163883924484 0.008203301578760147
-0.02281954512000084 -0.06254246830940247 0.4338911473751068
-0.08518175780773163 -0.04058025777339935 -0.007510419934988022
-0.10213328897953033 0.027993619441986084 0.019286304712295532
0.03843899071216583 -0.07882074266672134 0.011360928416252136
0.10983070731163025 -0.06359955668449402 -0.09600119292736053
-0.10027128458023071 0.25293222069740295 0.1224386990070343
0.028991688042879105 -0.11530597507953644 -0.19382217526435852
-0.06030593067407608 -0.0888306275010109 -0.05219607800245285
-0.08387212455272675 -0.06304807215929031 -0.03445419669151306
-0.10537923127412796 0.08615128695964813 0.043276332318782806
-0.07240702211856842 0.1683676391839981 0.33605870604515076
0.031239066272974014 -0.10987727344036102 0.15332306921482086
-0.10397695004940033 0.07471999526023865 0.19203417003154755
-0.08209624141454697 0.13411834836006165 0.10745057463645935
0.07904575765132904 -0.072370246052742 0.011824543587863445
0.02054540067911148 -0.07325255125761032 0.15988019108772278
-0.09052160382270813 -0.016212794929742813 0.0675303041934967
-0.11877961456775665 0.06170305609703064 0.009710844606161118
-0.08783069252967834 0.13698622584342957 0.011585105210542679
-0.11004378646612167 0.06391023099422455 -0.148395374417305
0.03936723619699478 -0.09354454278945923 -0.017704516649246216
0.075057253241539 -0.08529915660619736 -0.04764632508158684
0.04389973729848862 -0.08482744544744492 -0.023934783414006233
0.14759299159049988 -0.07941313087940216 0.2994900643825531
-0.09654472023248672 0.08729259669780731 -0.15375711023807526
-0.07909687608480453 -0.06551779061555862 -0.03585587441921234
0.1707955151796341 -0.09907358139753342 0.3791506886482239
0.11749677360057831 -0.058640509843826294 -0.034999944269657135
-0.08579842746257782 0.2667212188243866 0.39437368512153625
-0.10801789909601212 0.18809795379638672 -0.19986262917518616
-0.10014872252941132 0.010908038355410099 0.020716208964586258
0.2633189260959625 -0.07719435542821884 0.3070438504219055
-0.07278687506914139 -0.0708872601389885 -0.03669441118836403
-0.07713679224252701 -0.05842459201812744 -0.030698474496603012
-0.03158099949359894 -0.07118386030197144 -0.03533944487571716
-0.11047069728374481 0.04620973393321037 0.005134828854352236
0.05258172005414963 -0.09989529848098755 -0.13877582550048828
-0.08169998973608017 0.1777498722076416 -0.05305162072181702
-0.008855421096086502 -0.0929470956325531 -0.027589643374085426
-0.09056700766086578 0.1665729284286499 0.0022499337792396545
-0.09125084429979324 -0.05156073346734047 0.06743112951517105
0.008580431342124939 -0.08082549273967743 0.015655703842639923
-0.027503252029418945 -0.10806465148925781 -0.07977258414030075
-0.09576083719730377 -0.044322408735752106 0.01045607402920723
-0.015588314272463322 -0.0766221433877945 0.04788089543581009
0.31030645966529846 0.035613879561424255 0.0826001986861229
0.09290964901447296 -0.07861395925283432 -0.007406406104564667
-0.0924210399389267 0.05066554248332977 0.007377138361334801
-0.0772320032119751 -0.058169446885585785 -0.0317484587430954
-0.07621598988771439 -0.06208397448062897 -0.03783614933490753
0.09242582321166992 -0.07919952273368835 0.07825802266597748
-0.08805585652589798 -0.06345648318529129 -0.21911658346652985
0.10932991653680801 -0.06787858158349991 -0.014512727037072182
-0.08959763497114182 -0.007643149700015783 0.0623767264187336
0.06036422401666641 -0.10124679654836655 0.04416966065764427
-0.08145890384912491 -0.054332535713911057 -0.03161989152431488
0.06801395863294601 -0.10858344286680222 -0.3166944682598114
0.06031666696071625 -0.08902760595083237 0.07908840477466583
-0.044099241495132446 0.118431955575943 -0.3588024377822876
-0.09026293456554413 0.04324614629149437 -0.253314346075058
0.11408811062574387 -0.0627078264951706 -0.008598534390330315
-0.040615685284137726 -0.0770232081413269 -0.010573914274573326
-0.07937721908092499 -0.055272653698921204 -0.024441465735435486
-0.0909540057182312 -0.04612032324075699 0.06341513246297836
-0.009689081460237503 -0.06373029947280884 0.026060545817017555
0.2393057644367218 -0.07805750519037247 0.011290243826806545
-0.09115102887153625 0.11185888946056366 0.23827247321605682
0.03614319860935211 -0.08740255236625671 0.04066546633839607
-0.08521539717912674 -0.06201372295618057 0.07163229584693909
0.10269445180892944 -0.07262958586215973 0.059077247977256775
-0.06618049740791321 -0.08341321349143982 0.0730278342962265
-0.08036476373672485 -0.06785721331834793 -0.03767178952693939
0.18417252600193024 -0.0675821453332901 0.06286924332380295
0.10708439350128174 -0.0960071012377739 0.30851954221725464
0.10354074835777283 -0.06527864933013916 -0.043226178735494614
-0.018686983734369278 -0.05581771954894066 -0.22686396539211273
-0.0796753391623497 -0.058400172740221024 0.10196443647146225
0.08746811747550964 -0.08815939724445343 -0.04375118762254715
-0.0840880274772644 0.020272010937333107 -0.05182550102472305
-0.11015909165143967 0.05096454545855522 0.05012108385562897
-0.04225286468863487 -0.09285198897123337 0.11937038600444794
-0.016784019768238068 -0.08046628534793854 -0.16964328289031982
-0.08703811466693878 -0.04294736683368683 0.017922205850481987
0.055714450776576996 -0.10641147196292877 0.043180882930755615
-0.08707824349403381 -0.07540250569581985 -0.023996680974960327
0.04680551588535309 -0.07728070765733719 0.006136944517493248
0.12924328446388245 -0.08449641615152359 0.3537156283855438
-0.12281432747840881 0.07404828071594238 -0.0477188341319561
-0.08872893452644348 -0.0029075611382722855 0.08041444420814514
-0.10241011530160904 0.015045851469039917 -0.12884852290153503
0.06398530304431915 -0.08514204621315002 -0.023192036896944046
-0.07170618325471878 -0.05833841860294342 -0.02789228782057762
0.04521460831165314 -0.09813041985034943 -0.05376919358968735
-0.08102966099977493 -0.0661059096455574 -0.044031333178281784
-0.11012090742588043 0.14460450410842896 0.3887193202972412
0.05963451415300369 -0.08097739517688751 0.0019063279032707214
0.07424934953451157 -0.07575218379497528 -0.02454591728746891
-0.11365507543087006 0.038320958614349365 -0.05707000941038132
0.04733911156654358 -0.07639913260936737 0.01655985787510872
0.1282351166009903 -0.05824423208832741 0.15663205087184906
-0.013582093641161919 -0.09448720514774323 0.2925463318824768
0.0994945764541626 -0.0695469081401825 -0.019146718084812164
0.11742030829191208 -0.04307503625750542 0.3825177252292633
0.10986806452274323 -0.09187060594558716 -0.06158348545432091
0.08478257805109024 -0.076426200568676 -0.02467464655637741
-0.08644896745681763 0.10326242446899414 -0.023747213184833527
-0.10101447254419327 0.06783448159694672 -0.34249594807624817
-0.020236143842339516 -0.06278564035892487 -0.11034607887268066
-0.08654648065567017 -0.04934457316994667 0.0953654944896698
0.01993149146437645 -0.09867478907108307 -0.05952124670147896
-0.10109148919582367 0.015653692185878754 0.01549903117120266
0.06751386821269989 -0.10695410519838333 -0.08820623904466629
-0.0777820497751236 -0.07597528398036957 0.2042149156332016
-0.09550338983535767 0.02423183247447014 0.07534775882959366
-0.08917509764432907 -0.05643748864531517 0.09337112307548523
0.09032322466373444 -0.07939161360263824 0.00826195441186428
-0.0801725834608078 -0.0617462620139122 -0.030229683965444565
-0.10073550790548325 -0.056479401886463165 -0.2938583195209503
-0.022731337696313858 -0.09605007618665695 -0.040507860481739044
0.04138889163732529 -0.0933447778224945 0.11351969838142395
-0.11630164831876755 0.04052763432264328 0.3218163549900055
-0.025230446830391884 -0.09119343757629395 0.029642559587955475
-0.07814013957977295 -0.06668766587972641 -0.03261132165789604
0.062388334423303604 -0.11097194254398346 0.294399619102478
-0.1044522374868393 0.1187765821814537 0.34471631050109863
-0.07996761053800583 0.002193341962993145 0.08799268305301666
-0.11570923030376434 0.04712362214922905 0.1467932164669037
0.22598055005073547 -0.07009869813919067 -0.10854014754295349
-0.07241801917552948 -0.041978076100349426 -0.027796268463134766
-0.08936986327171326 -0.07269242405891418 -0.07979810237884521
-0.015233969315886497 -0.07830801606178284 0.004262937232851982
-0.0946575477719307 -0.07067327946424484 0.13364426791667938
-0.05786284804344177 -0.08483374118804932 -0.26738837361335754
-0.10340943187475204 -0.02446579746901989 0.2371947318315506
-0.07792773842811584 -0.07571879774332047 -0.03261132538318634
0.04861190915107727 -0.09237954020500183 -0.020237857475876808
0.0464416928589344 -0.08463938534259796 0.008677147328853607
0.07553938776254654 -0.07618888467550278 0.002020427957177162
0.14214344322681427 -0.09256043285131454 0.42925533652305603
-0.002557162195444107 -0.08322126418352127 0.0234508216381073
0.08201003074645996 -0.08225293457508087 0.00020111165940761566
-0.08395540714263916 0.13374513387680054 0.12873026728630066
0.11750242859125137 -0.07932768017053604 0.23260758817195892
0.052641239017248154 -0.07971180975437164 -0.01254739984869957
0.0974067822098732 -0.07668715715408325 0.12176263332366943
0.05651784688234329 -0.08260448276996613 -0.014980231411755085
-0.09657767415046692 0.013335393741726875 0.0007430966943502426
-0.07658898830413818 -0.06832592934370041 0.06854863464832306
-0.10864382982254028 0.041635915637016296 0.021178066730499268
-0.006063081324100494 -0.08123306930065155 0.002765825018286705
0.03286200016736984 -0.07524413615465164 -0.01286611333489418
0.001690758392214775 -0.11021110415458679 -0.1220233365893364
0.09260886907577515 -0.06893441081047058 0.2085702121257782
-0.08559150248765945 -0.0682045966386795 -0.055982477962970734
-0.0630451887845993 0.17000626027584076 0.23293913900852203
-0.08045196533203125 -0.06760144978761673 -0.04077943414449692
-0.0617431215941906 -0.08724130690097809 0.23142684996128082
-0.09297865629196167 0.10023585706949234 -0.013813839294016361
0.10533396899700165 -0.05793098360300064 0.00023959949612617493
-0.09293344616889954 0.02172158658504486 0.009361326694488525
-0.10738098621368408 -0.012148011475801468 -0.09865334630012512
-0.08349864929914474 0.10151055455207825 0.1482573300600052
-0.0747678279876709 -0.03734311833977699 0.11345179378986359
-0.06745799630880356 -0.027221307158470154 0.0233515202999115
-0.007678527384996414 -0.07714075595140457 0.21900981664657593
-0.10644280165433884 0.07745923101902008 0.0657581239938736
0.04677395522594452 -0.09892312437295914 -0.15222197771072388
0.08914265036582947 -0.10583033412694931 -0.23006096482276917
0.026879865676164627 -0.10437715798616409 0.22661127150058746
-0.06482303887605667 -0.05888192728161812 -0.058285776525735855
0.04502910003066063 -0.08652017265558243 -0.013180559501051903
-0.017401494085788727 -0.07653633505105972 0.014654740691184998
-0.08849944919347763 -0.03528054058551788 0.03151272237300873
-0.0756775438785553 -0.025700680911540985 0.07632045447826385
-0.10386200994253159 0.09279163181781769 0.10300634056329727
0.36956754326820374 0.049489833414554596 -0.035512521862983704
-0.003422209993004799 -0.08820997178554535 0.022264869883656502
-0.12000232189893723 0.10168281942605972 0.10991815477609634
0.11483335494995117 -0.0619727224111557 0.03345847502350807
0.09779705107212067 -0.08514746278524399 -0.0074495673179626465
-0.11943604797124863 0.026475489139556885 0.003665781579911709
0.10139539837837219 -0.04886120185256004 -0.0806790217757225
0.014481579884886742 -0.08629349619150162 0.016351856291294098
-0.09628809988498688 0.0004363302141427994 0.030294638127088547
-0.0765959620475769 -0.04984429478645325 -0.05492537468671799
-0.11332260072231293 0.008315060287714005 -0.16807818412780762
0.00018004979938268661 -0.08017352968454361 0.0018072277307510376
-0.08049370348453522 -0.06610911339521408 0.06300581246614456
-0.07915732264518738 0.014243356883525848 -0.01169854961335659
-0.08493925631046295 0.12033669650554657 -0.11818491667509079
0.06580004841089249 -0.07225549966096878 0.004504765383899212
-0.07580062747001648 0.12737780809402466 0.2752477824687958
-0.08670619130134583 -0.059976089745759964 0.04589074105024338
-0.10499626398086548 -0.06993521004915237 0.3441276252269745
-0.09342966228723526 -0.06820839643478394 -0.06382486969232559
0.032521821558475494 -0.06682536005973816 0.08616743981838226
-0.09462645649909973 0.10415912419557571 -0.022712575271725655
-0.06920772045850754 0.1471007615327835 0.44136589765548706
-0.10902353376150131 -0.058665622025728226 0.2867845892906189
-0.0538555309176445 0.13624198734760284 0.07560724020004272
0.004072556272149086 -0.08914459496736526 0.07510057836771011
0.04712240397930145 -0.10824272036552429 -0.37945565581321716
0.06395823508501053 -0.09615916758775711 -0.024823980405926704
-0.09647080302238464 0.01846987195312977 -0.0394863560795784
-0.12452802062034607 0.04421176388859749 0.14561107754707336
-0.12042911350727081 -0.0352804958820343 -0.21305644512176514
0.01231447421014309 -0.07779312133789062 0.036638543009757996
-0.07857317477464676 -0.09470470994710922 -0.0021412712521851063
