-0.12626636028289795 0.07340718060731888 -0.040137000381946564
-0.11779169738292694 0.047678712755441666 -0.012962868437170982
-0.0894988626241684 -0.03537685051560402 -0.04615145921707153
0.08202891051769257 -0.05653666332364082 -0.02567511424422264
-0.10401500016450882 -0.010034930892288685 -0.017491405829787254
0.11544208973646164 -0.038770273327827454 -0.17035020887851715
0.004867014940828085 -0.08243265002965927 0.00014336127787828445
0.03238270804286003 -0.08261427283287048 -0.00233286339789629
-0.0032494887709617615 -0.09899142384529114 -0.22877609729766846
-0.09554146230220795 0.12143240123987198 0.04839964956045151
0.04267158359289169 -0.09439682215452194 -0.07653079181909561
-0.05820795148611069 -0.08092375844717026 -0.11540056765079498
0.0376669242978096 -0.07372656464576721 -0.08135125786066055
0.09053228795528412 -0.055071957409381866 -0.16233035922050476
-0.007072843611240387 0.06266999989748001 0.26829463243484497
0.1151278167963028 -0.039479538798332214 -0.04922857880592346
0.08223054558038712 -0.0027883388102054596 0.09905942529439926
0.10413279384374619 -0.03489956259727478 -0.3111264705657959
-0.061453599482774734 -0.07146100699901581 -0.054465413093566895
0.03990471363067627 -0.09627312421798706 -0.07041236013174057
-0.004479041788727045 0.007257023826241493 0.13619743287563324
-0.06721089780330658 0.16924142837524414 -0.07860204577445984
-0.0811963900923729 0.15993693470954895 -0.046434544026851654
-0.07442069053649902 0.06854486465454102 0.12402570247650146
0.04390501230955124 -0.003501659259200096 0.11993066966533661
0.05229233205318451 0.0836639404296875 0.12049586325883865
0.08243869990110397 -0.006648607552051544 0.10454868525266647
-0.07631798088550568 0.07361117750406265 0.11159820854663849
-0.1263805627822876 0.021893778815865517 -0.1509028673171997
-0.015099002048373222 0.01344696432352066 0.36826032400131226
-0.0550098642706871 0.13349488377571106 0.06435458362102509
-0.08593642711639404 -0.024662349373102188 -0.00011222809553146362
0.128910094499588 0.013575408607721329 0.040793970227241516
-0.1287393718957901 0.04631146788597107 -0.17129802703857422
0.030326969921588898 -0.0879741907119751 -0.3258906304836273
-0.11581498384475708 0.028993938118219376 -0.03338227793574333
0.0774458572268486 -0.061604712158441544 -0.020072106271982193
-0.03992292284965515 -0.034783411771059036 0.05878479778766632
0.029526885598897934 -0.009355779737234116 0.4071654677391052
-0.018937919288873672 0.061822742223739624 0.14266516268253326
-0.005851016379892826 0.14605304598808289 0.03354138135910034
-0.06690714508295059 0.10448656976222992 0.10817581415176392
0.0035191141068935394 0.10364004969596863 0.11977024376392365
-0.11825412511825562 0.002086902502924204 -0.07241082936525345
0.05708601325750351 -0.05556032806634903 0.02046610787510872
0.024892881512641907 -0.06072451174259186 0.018183745443820953
-0.08092790096998215 -0.01623598486185074 0.005987853743135929
-0.11592863500118256 0.059500161558389664 0.0015190113335847855
-0.05454445630311966 0.054072149097919464 0.1423184722661972
-0.10884814709424973 0.06429539620876312 0.03349324315786362
-0.10471324622631073 0.038580767810344696 0.040763866156339645
0.14334070682525635 -0.0076575977727770805 -0.1369372457265854
-0.11471130698919296 0.0689673125743866 0.038911186158657074
-0.053622834384441376 -0.02194671705365181 0.048600997775793076
-0.12803059816360474 0.09924032539129257 -0.1814134120941162
-0.0682598352432251 0.17131070792675018 -0.0660979375243187
-0.02907680533826351 0.10668163746595383 0.14161507785320282
-0.0012751668691635132 -0.018415825441479683 0.10410241037607193
-0.09663831442594528 0.14126867055892944 -0.22769150137901306
-0.0028686225414276123 -0.05209576338529587 0.08440390974283218
-0.11707216501235962 0.03628532215952873 -0.047713443636894226
-0.11597932130098343 0.10068834573030472 0.0033129435032606125
-0.04367833957076073 -0.0784352719783783 -0.3013366162776947
-0.11598218232393265 0.059024810791015625 -0.0008161244913935661
0.014180824160575867 0.044112708419561386 0.4118805229663849
-0.11440467834472656 0.03223962336778641 0.001224718987941742
-0.13304024934768677 0.014614342711865902 -0.11886748671531677
-0.07880449295043945 -0.06997653841972351 -0.09858135879039764
-0.05426378175616264 0.06073372811079025 0.13291452825069427
0.036286860704422 0.02738812193274498 0.20106589794158936
-0.10396898537874222 0.04206930100917816 0.04354645311832428
0.04888176918029785 -0.08527674525976181 -0.028470955789089203
-0.001737438142299652 -0.07443950325250626 -0.09964796900749207
-0.01694704219698906 0.03024529106914997 0.12482054531574249
0.0031856000423431396 -0.07612644881010056 -0.019015932455658913
-0.11409680545330048 0.05826050043106079 -0.001810337882488966
0.0008142217993736267 0.018413875252008438 0.2556735873222351
0.09222610294818878 -0.06098247319459915 -0.20333367586135864
-0.09529994428157806 0.055322833359241486 0.04470273107290268
-0.1090807318687439 0.01329045183956623 -0.009775912389159203
-0.11388412117958069 0.09801305085420609 0.023290513083338737
-0.1177033931016922 -0.0029892493039369583 -0.165098637342453
-0.08535948395729065 0.14287802577018738 0.013519039377570152
0.042034685611724854 0.013733506202697754 0.2625846564769745
0.08532769978046417 -0.05097312480211258 -0.32212603092193604
-0.10688640177249908 -0.0010408870875835419 -0.021078579127788544
0.038863930851221085 0.012365756556391716 0.267897367477417
-0.1088268905878067 0.01578877493739128 -0.02448488399386406
0.03897940367460251 -0.06746217608451843 0.0022607159335166216
0.016001738607883453 -0.05583333969116211 0.047015778720378876
-0.0642540380358696 0.16465815901756287 -0.0313105508685112
-0.11559420824050903 0.05417727679014206 -0.0016908417455852032
0.023880615830421448 -0.09591855853796005 -0.06395551562309265
-0.12796112895011902 0.08726277947425842 -0.08392830193042755
0.029741642996668816 -0.09044580161571503 -0.039037931710481644
0.12491510808467865 -0.030654791742563248 -0.05793885514140129
-0.06879541277885437 0.130961611866951 0.05634371563792229
-0.07500062137842178 0.1303592175245285 0.05647047981619835
0.0883474200963974 -0.028482578694820404 0.05280895531177521
-0.04127936810255051 -0.09633725881576538 -0.2253440022468567
-0.013196432963013649 0.0360272154211998 0.2606627941131592
-0.01655123010277748 0.0557258240878582 0.29121720790863037
0.03291688859462738 -0.07941161841154099 0.007385357283055782
0.047806430608034134 0.1118963286280632 0.07102303206920624
-0.06157902628183365 -0.019190948456525803 0.01488246489316225
0.06338002532720566 0.03832892328500748 0.15663155913352966
0.0966164618730545 -0.04592202976346016 -0.039555493742227554
-0.11470305919647217 0.027235111221671104 -0.004206501878798008
-0.11139102280139923 0.025123413652181625 -0.004489079117774963
0.011049341410398483 -0.0973677933216095 -0.04973800480365753
0.047309257090091705 -0.08557043224573135 -0.05010946840047836
-0.03247574344277382 -0.08795800805091858 -0.1647184044122696
0.05446842685341835 -0.06778351962566376 -0.007131093181669712
0.015677034854888916 -0.07419818639755249 0.030879827216267586
-0.005680202506482601 0.015704788267612457 0.3445071280002594
-0.1142076849937439 0.06705119460821152 -0.0023306049406528473
0.08306995034217834 -0.05642958730459213 -0.0210020262748003
0.026088371872901917 -0.09230916202068329 -0.028262712061405182
0.09745976328849792 -0.053714849054813385 -0.07580768316984177
0.02537175640463829 -0.08035996556282043 -0.0019334200769662857
-0.057160839438438416 -0.08070158213376999 -0.2601049840450287
-0.07359367609024048 0.15085247159004211 0.010348545387387276
-0.07990396022796631 0.07937786728143692 -0.27668970823287964
-0.07661347091197968 0.0705883577466011 0.1300399750471115
0.08203904330730438 -0.056172505021095276 -0.02165008708834648
0.08344028145074844 -0.05560727417469025 -0.020016081631183624
-0.10406794399023056 -0.04657405614852905 -0.12072622776031494
0.06930486112833023 -0.04650554060935974 0.02862725220620632
-0.0004801470786333084 -0.04609993100166321 0.04546196758747101
-0.07901890575885773 -0.07874652743339539 -0.15688420832157135
0.04064396768808365 -0.09936906397342682 -0.1926800012588501
-0.0952417403459549 0.12104974687099457 0.04136645421385765
-0.04705178737640381 0.062116749584674835 0.1157679557800293
0.02591220661997795 -0.09040755033493042 -0.03981819748878479
0.05737978219985962 -0.0656232237815857 -0.00940992496907711
-0.049874790012836456 0.06795703619718552 0.15994355082511902
-0.07552706450223923 0.07448364049196243 0.13785700500011444
0.03411341458559036 -0.05862771347165108 0.013109095394611359
-0.03947674110531807 -0.08643440902233124 -0.10681744664907455
-0.028598953038454056 0.06056569516658783 0.14342504739761353
-0.005139543209224939 -0.07966572046279907 -0.003398314118385315
0.08392143994569778 -0.055989041924476624 -0.020894791930913925
0.02753969095647335 -0.09145694971084595 -0.05094292759895325
-0.11619169265031815 0.058598291128873825 9.26116481423378e-05
-0.0382261760532856 0.11298086494207382 -0.28876757621765137
0.05007730424404144 -0.06996002793312073 -0.015289210714399815
-0.06339260190725327 0.13233371078968048 0.06931786984205246
-0.08855541050434113 0.1512780636548996 -0.11654824763536453
0.027333766222000122 -0.09225340187549591 -0.06533396989107132
0.08327867090702057 -0.058795444667339325 -0.022615112364292145
-0.06214170157909393 0.17332293093204498 -0.09310051798820496
-0.05400852859020233 -0.0628807321190834 -0.04859042912721634
0.027807945385575294 0.02213190123438835 0.4140250086784363
-0.07368600368499756 0.07392864674329758 0.15727265179157257
0.04138661175966263 0.018460962921380997 0.23512619733810425
-0.10324510931968689 -0.05941493436694145 -0.16147828102111816
-0.046924151480197906 0.07344035059213638 0.15141692757606506
0.03821120783686638 -0.0969856008887291 -0.24242687225341797
0.0007708733901381493 -0.076604925096035 -0.012532360851764679
-0.039354369044303894 0.10703089833259583 -0.3157772421836853
-0.026148008182644844 0.1048409566283226 0.1334877908229828
0.13529233634471893 -0.019019538536667824 -0.14710739254951477
-0.004107382148504257 0.036340195685625076 0.22712334990501404
-0.11602802574634552 0.030834604054689407 -0.04424513131380081
0.10720503330230713 -0.05289926379919052 -0.062193602323532104
-0.11405870318412781 0.07766082882881165 0.026509203016757965
-0.01698978617787361 0.12533986568450928 0.0900072455406189
-0.09806646406650543 0.02260427549481392 0.07277198135852814
0.0434405580163002 -0.0868692398071289 -0.36497965455055237
-0.02991655468940735 -0.09216590225696564 -0.289072722196579
-0.04449015110731125 0.007053452543914318 -0.3025433421134949
0.032211173325777054 -0.09423457086086273 -0.0864972472190857
0.13943356275558472 0.011287089437246323 0.02100430801510811
-0.11630897969007492 0.06055896356701851 0.0019731377251446247
-0.12359268218278885 0.09179750084877014 0.006379720289260149
0.08135323971509933 -0.05708678811788559 -0.01763870194554329
-0.06902576237916946 0.13136839866638184 0.053839847445487976
-0.08582636713981628 -0.000877325888723135 0.013086648657917976
-0.1179368793964386 0.058173760771751404 -0.008943004533648491
-0.1054694727063179 -0.05380145460367203 -0.17694799602031708
0.03722468018531799 -0.09149441123008728 -0.06639668345451355
-0.10718740522861481 -0.049918487668037415 -0.1418994516134262
-0.045218199491500854 0.07541869580745697 0.4195423424243927
-0.0015396557282656431 -0.06928553432226181 0.033665981143713
-0.010291863232851028 0.039078932255506516 0.21785002946853638
0.02912476472556591 0.010606866329908371 0.3141673803329468
0.0975121557712555 -0.04325226694345474 -0.040199924260377884
0.06041181460022926 -0.003157392144203186 0.4117024540901184
0.0029418356716632843 -0.10683757811784744 -0.2836463749408722
0.021286118775606155 -0.09271177649497986 -0.04150448739528656
0.08460109680891037 -0.05714841187000275 -0.018958235159516335
-0.12131744623184204 0.09081529080867767 0.017239604145288467
-0.058508388698101044 0.13089025020599365 0.08005447685718536
0.09464774280786514 -0.05860624089837074 -0.1511070430278778
0.025407496839761734 0.03707299008965492 0.20252886414527893
0.08598873019218445 -0.05674038827419281 -0.27692800760269165
0.00513487309217453 0.05992123484611511 0.1934431493282318
0.0637161135673523 -0.05634117126464844 0.014043208211660385
-0.10014032572507858 -0.025704145431518555 -0.057780325412750244
0.040226515382528305 -0.08852455765008926 -0.05864240974187851
0.03642391413450241 -0.05683169886469841 0.04098299890756607
-0.09876476973295212 0.1331881284713745 -0.01896844431757927
-0.11668987572193146 0.03587368130683899 -0.06010192632675171
-0.11737272143363953 0.029295751824975014 -0.03268197551369667
-0.08156594634056091 -0.06135191395878792 -0.11912118643522263
-0.008986325934529305 -0.06379947811365128 0.021853094920516014
-0.07299894839525223 0.1315646469593048 0.06870235502719879
-0.11877187341451645 0.11659467220306396 -0.019257070496678352
-0.07198154926300049 -0.07876010239124298 -0.09000831842422485
0.00015372782945632935 0.059661708772182465 0.15590380132198334
-0.03769674152135849 -0.08843087404966354 -0.1071506068110466
0.08475702255964279 -0.054907433688640594 -0.019845733419060707
-0.08714094758033752 -0.0612630620598793 -0.10013564676046371
-0.03737429156899452 -0.08541375398635864 -0.03937907889485359
-0.08875809609889984 -0.05866416171193123 -0.27335983514785767
-0.0887606292963028 0.1279277801513672 -0.3128519058227539
-0.08567507565021515 -0.02670152485370636 -0.02147318795323372
-0.013668052852153778 0.11552946269512177 0.09885428845882416
0.03803194314241409 -0.022898592054843903 -0.31332656741142273
-0.09658830612897873 0.1195916086435318 0.037096574902534485
0.019450191408395767 -0.0817410945892334 0.013347635045647621
0.08732657134532928 -0.055738553404808044 -0.06771929562091827
-0.12496194988489151 0.07580172270536423 -0.03328411653637886
-0.0869297906756401 -0.021802835166454315 -0.00840364396572113
-0.07320550829172134 0.11689034104347229 0.09461528062820435
-0.03442227095365524 -0.03715328872203827 0.06380043923854828
-0.11534516513347626 0.05117392539978027 0.003384482115507126
-0.09414530545473099 0.14803317189216614 -0.03206498175859451
0.031162096187472343 -0.08341890573501587 -0.015103119425475597
0.012330751866102219 -0.09576483070850372 -0.05187278613448143
0.0815345048904419 -0.05815313011407852 -0.020566467195749283
-0.09941204637289047 0.03820649906992912 0.062431830912828445
-0.002793792635202408 -0.09358035027980804 -0.08195511996746063
0.031072180718183517 -0.0159759558737278 0.12458159774541855
0.07127019762992859 -0.04999683424830437 0.01462556328624487
-0.11755490303039551 0.09646159410476685 0.013437798246741295
-0.06450659036636353 0.08198881894350052 0.14470720291137695
-0.09167874604463577 -0.04250072315335274 -0.04972807690501213
0.021949924528598785 -0.00023862719535827637 0.3988029360771179
-0.010862059891223907 -0.08621900528669357 -0.15863436460494995
0.02400248683989048 -0.07394292950630188 0.000926588661968708
-0.052350327372550964 -0.0852346271276474 -0.17260923981666565
-0.08693874627351761 -0.06464260071516037 -0.10131596028804779
0.04951055720448494 -0.0766344964504242 -0.01206151582300663
-0.113589346408844 0.02118736132979393 -0.002742042997851968
-0.07042204588651657 0.13436618447303772 0.06289449334144592
-0.08034033328294754 0.003790490794926882 -0.2920014262199402
-0.11404476314783096 -0.022245530039072037 -0.14979663491249084
-0.06512424349784851 0.11502121388912201 -0.29502660036087036
-0.11788758635520935 0.00015337206423282623 -0.20582377910614014
0.061930738389492035 -0.05078326538205147 0.018199361860752106
-0.08620008826255798 0.15020543336868286 -0.07727253437042236
-0.10446737706661224 -0.052664075046777725 -0.09784744679927826
-0.11444142460823059 0.03358357399702072 -0.007971699349582195
-0.010556153953075409 0.05557393282651901 0.21789048612117767
0.022233476862311363 -0.09215481579303741 -0.07486684620380402
-0.09379217028617859 0.04805028811097145 0.03611554577946663
0.00021103862673044205 -0.07730238884687424 -0.0038948534056544304
0.053333889693021774 -0.07421107590198517 -0.025616757571697235
-0.12074390053749084 0.04950723797082901 -0.04593499004840851
0.028913266956806183 -0.05709977447986603 0.021984487771987915
0.05607651174068451 -0.08153912425041199 -0.09980171173810959
0.03930692747235298 0.025962555781006813 0.3949861526489258
-0.014577742666006088 0.03544120118021965 0.22050034999847412
0.0043647680431604385 -0.06849993765354156 0.007055792957544327
-0.09975574910640717 0.11303062736988068 0.057392850518226624
0.1379278302192688 -0.019103437662124634 -0.1296146810054779
-0.07832350581884384 -0.06995052099227905 -0.2523210346698761
-0.03686981648206711 -0.02994084358215332 0.06605862081050873
-0.03168615698814392 -0.088651642203331 -0.09779436141252518
0.008443738333880901 -0.07941710203886032 0.009998688474297523
0.005854844115674496 -0.09520482271909714 -0.048765163868665695
-0.04372182488441467 -0.0869905948638916 -0.18650291860103607
-0.09729821234941483 -0.04619012400507927 -0.07220764458179474
0.01947789266705513 -0.024779221042990685 0.0732443779706955
0.1364612877368927 -0.01328088715672493 -0.019675014540553093
-0.11621266603469849 0.04466463625431061 -0.011599932797253132
-0.029127467423677444 0.12207366526126862 0.09298786520957947
-0.05580230429768562 0.1354648768901825 0.0717356950044632
0.027413971722126007 0.021930981427431107 0.24948620796203613
-0.08836857229471207 -0.025433339178562164 -0.010680362582206726
-0.12799599766731262 0.09025685489177704 -0.26430031657218933
0.13170573115348816 -0.025518596172332764 -0.0606071837246418
-0.11537021398544312 0.047016166150569916 -0.013733252882957458
-0.03631292283535004 -0.09352689981460571 -0.2391376942396164
-0.04755115136504173 0.06210829317569733 0.13981032371520996
-0.11411898583173752 0.09691611677408218 0.023540226742625237
-0.05433937907218933 -0.01512247882783413 0.049222927540540695
-0.013124736025929451 0.04251117631793022 0.3990257978439331
-0.10390719771385193 -0.015238478779792786 -0.009939542971551418
-0.004077903926372528 -0.07752547413110733 0.007487120106816292
-0.07762284576892853 -0.02456771582365036 -0.015088451094925404
-0.08370351791381836 0.15990139544010162 -0.06194896996021271
0.02693791687488556 0.023698173463344574 0.22535811364650726
0.025159377604722977 -0.09100140631198883 -0.03932579979300499
-0.06021510809659958 -0.05993862822651863 -0.04130018502473831
-0.03139706701040268 -0.07968340069055557 -0.02556633949279785
0.1374480277299881 -0.004951754584908485 -0.20099014043807983
0.040305595844984055 -0.09332939237356186 -0.11466886103153229
-0.05950184166431427 0.1322338581085205 0.0704561173915863
0.025037430226802826 -0.09265407919883728 -0.03742879256606102
-0.12636056542396545 0.05589444935321808 -0.03729081526398659
-0.024936789646744728 -0.02937546744942665 0.06602335721254349
-0.08479732275009155 0.14347419142723083 0.004253227263689041
-0.021440383046865463 -0.06061624363064766 0.0394478403031826
-0.10354536026716232 0.045681312680244446 0.03274759277701378
0.06858425587415695 -0.046071313321590424 0.011649984866380692
0.03886953368782997 -0.09043532609939575 -0.3102855384349823
-0.06982959061861038 -0.07593956589698792 -0.129788339138031
-0.045159030705690384 0.12509138882160187 0.11162449419498444
-0.11775466799736023 0.030048679560422897 -0.32331687211990356
0.05073954164981842 -0.0837574303150177 -0.2951236665248871
-0.10021578520536423 0.03837338462471962 0.05824176222085953
0.11433971673250198 -0.039443112909793854 -0.06570513546466827
-0.07623974978923798 -0.021081045269966125 0.00785048771649599
-0.002140045166015625 -0.015713177621364594 0.08072803914546967
-0.08364706486463547 -0.013557384721934795 0.02401844784617424
0.02289794385433197 0.028318103402853012 0.22900888323783875
0.04395315796136856 -0.07836536318063736 -0.027257319539785385
0.03182363882660866 -0.061715856194496155 0.031469132751226425
-0.10874934494495392 0.04013386741280556 -0.006689154542982578
-0.07709596306085587 -0.07150489091873169 -0.07762473821640015
-0.04984735697507858 0.049430929124355316 0.16218799352645874
-0.06891901046037674 -0.03610431030392647 -0.3332349359989166
0.12923163175582886 -0.013428742066025734 0.01758209802210331
-0.04131823778152466 0.05952860414981842 0.11805807054042816
0.055945854634046555 -0.056392669677734375 0.013420725241303444
-0.010688095353543758 -0.10566346347332001 -0.3084964156150818
0.03254583477973938 -0.0934542566537857 -0.10786338150501251
-0.08615532517433167 -0.07052528858184814 -0.14038510620594025
-0.13155385851860046 0.04064581170678139 -0.24787947535514832
-0.07323823869228363 0.10369187593460083 0.13296592235565186
0.006135379895567894 -0.0759979635477066 0.0075410353019833565
-0.07982882857322693 -0.0688835009932518 -0.09784582257270813
-0.1178833395242691 0.06285691261291504 -0.00946413166821003
-0.07309501618146896 0.1038302555680275 0.13449150323867798
0.03478997200727463 0.01580091193318367 0.18357528746128082
-0.018151739612221718 0.047853562980890274 0.2843187749385834
0.031147858127951622 0.0032971464097499847 0.34707361459732056
0.018996180966496468 0.021257564425468445 0.34654366970062256
0.08248189091682434 0.003912176936864853 0.12424160540103912
-0.08375996351242065 0.14162835478782654 0.01228131353855133
-0.003527337685227394 -0.06976038962602615 -0.011013375595211983
0.07202576100826263 -0.05089208483695984 0.016133993864059448
-0.11728227138519287 0.03214908391237259 -0.030564801767468452
0.15166284143924713 0.020785190165042877 -0.07915383577346802
0.030510030686855316 -0.09048792719841003 -0.041705209761857986
0.0798858255147934 -0.049066852778196335 -0.3414910137653351
0.02486087754368782 -0.07031572610139847 0.00618739565834403
-0.07052366435527802 0.13566720485687256 0.06243149936199188
-0.08822206407785416 -0.06937405467033386 -0.21155303716659546
-0.1225428432226181 0.0012237774208188057 -0.09005268663167953
-0.11188885569572449 -0.04265326261520386 -0.22916658222675323
-0.11523692309856415 0.07243575900793076 0.04665634036064148
0.026855245232582092 -0.0831279456615448 -0.012427940964698792
-0.056013323366642 0.13373680412769318 0.06942959129810333
-0.09081743657588959 0.03926181048154831 0.08188244700431824
0.12695381045341492 -0.026380501687526703 -0.03664795309305191
-0.018525011837482452 0.1259966641664505 0.09595594555139542
-0.11574220657348633 0.06351708620786667 -0.02277716062963009
-0.11492535471916199 0.033518899232149124 -0.004818009212613106
-0.0737663134932518 0.11317175626754761 0.08619523048400879
-0.11461561918258667 -0.03608059138059616 -0.21257008612155914
-0.015071505680680275 0.05396781116724014 -0.2689209580421448
0.04174155741930008 -0.09581480920314789 -0.1416836380958557
0.08402812480926514 -0.054911013692617416 -0.018349453806877136
-0.0948823019862175 -0.06900784373283386 -0.10099197924137115
0.05366559326648712 -0.07387867569923401 -0.039597976952791214
-0.11268562078475952 0.032436832785606384 -0.005021566525101662
-0.11406958103179932 0.03095884993672371 0.0006110221147537231
-0.028977109119296074 0.010373085737228394 0.11503748595714569
0.007357172667980194 -0.08258356153964996 -0.07827408611774445
0.01786416582763195 -0.08130127936601639 0.014071531593799591
0.01516936905682087 -0.05054094269871712 0.04676424711942673
-0.09130840003490448 0.14899802207946777 -0.15686115622520447
-0.07680168002843857 0.09672347456216812 0.1331886351108551
0.04096200317144394 -0.013491632416844368 0.14286841452121735
0.06377347558736801 -0.05820589140057564 0.018461883068084717
-0.10926461219787598 0.02586895413696766 -0.010406256653368473
0.09776656329631805 -0.030863039195537567 0.03195071965456009
0.03825925663113594 -0.0904620885848999 -0.05332477390766144
-0.01852838508784771 -0.08568819612264633 -0.026814669370651245
0.03633725643157959 -0.07838771492242813 -0.011900123208761215
-0.11955764889717102 -0.016518060117959976 -0.29790690541267395
-0.06618788838386536 0.17095932364463806 -0.1815648376941681
0.020111894235014915 -0.09193116426467896 -0.04345332086086273
-0.10703758895397186 -0.007343890145421028 -0.03788342699408531
-0.009022008627653122 -0.030498243868350983 0.05286939814686775
-0.03746296837925911 -0.07572595775127411 -0.26220038533210754
-0.024021824821829796 -0.04532105475664139 0.0618479959666729
-0.02782859280705452 0.03980103135108948 0.4105583131313324
0.1386810839176178 0.03919508308172226 -0.016459474340081215
-0.05287342891097069 0.16274040937423706 0.019800258800387383
-0.13074804842472076 0.00021505635231733322 -0.2527279555797577
-0.10300640761852264 0.14196084439754486 -0.18242403864860535
0.003673593048006296 -0.0835581123828888 0.0068102371878921986
0.05202190577983856 -0.0667744055390358 -0.01575126312673092
-0.04414067789912224 0.1212262511253357 0.07852937281131744
-0.09089852124452591 -0.03550712764263153 -0.3194160759449005
-0.08307911455631256 0.008543754927814007 0.024601157754659653
0.097330741584301 -0.05381590873003006 -0.13229718804359436
-0.009212613105773926 0.06805186718702316 0.16544434428215027
-0.11843155324459076 0.04182150959968567 -0.051808230578899384
-0.10543027520179749 0.08543836325407028 0.04473186656832695
-0.06934008002281189 -0.0812416821718216 -0.1206207200884819
-0.06990078091621399 -0.029613273218274117 0.012883160263299942
-0.053854770958423615 0.04937559738755226 0.14055347442626953
0.07059776782989502 -0.04765506833791733 0.03132461756467819
0.1265496164560318 -0.03304215893149376 -0.03354060649871826
0.08320436626672745 -0.05579483136534691 -0.020945031195878983
0.016498038545250893 -0.09840202331542969 -0.05333458632230759
-0.11522829532623291 -0.010299811139702797 -0.05081798881292343
-0.12319721281528473 -0.006354516372084618 -0.2585345506668091
-0.053205881267786026 -0.071265310049057 -0.04182847589254379
-0.03218354284763336 0.07342808693647385 -0.28787508606910706
-0.0771673321723938 0.07108478993177414 0.16307485103607178
-0.10274646431207657 0.04187661409378052 0.0422787070274353
-0.12134835124015808 0.09225695580244064 -0.288807213306427
0.01812109723687172 -0.09122848510742188 -0.029636476188898087
-0.008445557206869125 -0.07618345320224762 3.215600736439228e-05
0.03466584533452988 -0.09074172377586365 -0.060653604567050934
-0.007466535083949566 -0.06293171644210815 0.024438589811325073
0.08436022698879242 -0.05604695528745651 -0.01996542699635029
-0.014180496335029602 0.06024681404232979 0.15561440587043762
0.0601944774389267 -0.05447369068861008 -0.34232762455940247
0.06114130839705467 -0.050173643976449966 0.016904158517718315
0.03387890383601189 -0.08222700655460358 -0.01736399345099926
-0.053762439638376236 -0.07293657958507538 -0.31481269001960754
0.047214243561029434 -0.08823509514331818 -0.05550840497016907
0.11973713338375092 -0.03019711934030056 -0.24710169434547424
-0.12443286180496216 0.006602562963962555 -0.13020749390125275
-0.08218704164028168 0.10968902707099915 0.1313125193119049
0.010070138610899448 -0.0842607319355011 -0.12690816819667816
-0.11928872764110565 0.061525531113147736 -0.019065167754888535
0.022869205102324486 -0.09087973833084106 -0.053987935185432434
-0.0716017633676529 0.16712285578250885 -0.14499260485172272
0.035089220851659775 -0.04553557187318802 0.0541573092341423
0.026537053287029266 -0.0988551527261734 -0.181260347366333
-0.11636139452457428 0.04051382839679718 -0.009637847542762756
-0.11888164281845093 0.12124865502119064 -0.14364078640937805
-0.02742108143866062 -0.07699605822563171 -0.32426902651786804
-0.061394184827804565 -0.06267023086547852 -0.04766053706407547
-0.061129309237003326 -0.028196584433317184 0.012892810627818108
0.03020380809903145 -0.08416204154491425 -0.015324881300330162
-0.13226304948329926 0.00872732326388359 -0.16283993422985077
0.08196316659450531 -0.05376577377319336 -0.019640186801552773
0.007877238094806671 -0.10475277900695801 -0.25671759247779846
0.037827521562576294 -0.09139522910118103 -0.05163265019655228
0.02657053805887699 0.1079576313495636 0.10102315992116928
-0.044290781021118164 0.1439623087644577 0.0576581209897995
0.013303734362125397 0.044518642127513885 -0.2658650875091553
0.04192664846777916 -0.09264765679836273 -0.07453977316617966
-0.10206791758537292 0.04289146512746811 0.03967512398958206
-0.11754244565963745 -0.004125424660742283 -0.0480956956744194
-0.015148590318858624 -0.09262439608573914 -0.11989450454711914
0.03876892477273941 -0.08748546987771988 -0.0716899186372757
0.05090320110321045 -0.09063717722892761 -0.06525154411792755
-0.05639280006289482 0.04966595768928528 0.11671893298625946
-0.13286961615085602 0.04372488334774971 -0.2115202695131302
-0.04457174241542816 0.141211599111557 0.054622527211904526
0.034605156630277634 -0.08959169685840607 -0.0647139847278595
0.010635826736688614 0.05677742511034012 0.2525196373462677
0.006962630897760391 -0.04962487891316414 0.05692830681800842
-0.029433246701955795 -0.09074384719133377 -0.1411210298538208
-0.07931041717529297 0.15444305539131165 -0.009353157132863998
0.013459531590342522 -0.0826345756649971 -0.06909111142158508
0.006570711731910706 0.0051049962639808655 0.36063146591186523
-0.09790308773517609 0.1231880709528923 0.047433510422706604
0.08277938514947891 0.007867664098739624 0.09562298655509949
-0.06255993992090225 0.13246063888072968 0.07281380891799927
-0.09537799656391144 -0.050702162086963654 -0.07559844851493835
0.11626346409320831 -0.04108959436416626 -0.04467136412858963
0.10151943564414978 -0.04795973375439644 -0.049578458070755005
-0.045712538063526154 0.143581822514534 0.05721590667963028
-0.07074437290430069 0.1708650290966034 -0.17160259187221527
0.0009983200579881668 -0.0688907727599144 0.042538855224847794
0.005940977483987808 -0.04717963933944702 0.06371046602725983
0.069388248026371 -0.08214515447616577 -0.23556171357631683
-0.0007817680016160011 0.0664963349699974 0.37002134323120117
0.040031883865594864 -0.09219720959663391 -0.055325575172901154
0.044826678931713104 -0.08663692325353622 -0.13569767773151398
0.0333256721496582 -0.08018385618925095 -0.013289287686347961
0.10915811359882355 -0.037227846682071686 -0.026436803862452507
0.0036683818325400352 -0.09840346872806549 -0.04726021736860275
0.04336375370621681 0.011795464903116226 0.26867932081222534
-0.039571162313222885 -0.09380179643630981 -0.18518266081809998
0.08428217470645905 -0.05536627769470215 -0.02094939909875393
-0.11078018695116043 0.02279610000550747 -0.0059198178350925446
-0.13483358919620514 0.04387155920267105 -0.12931182980537415
0.0017785094678401947 -0.1044333279132843 -0.322311133146286
-0.016541974619030952 -0.10160207748413086 -0.2037784308195114
-0.007966156117618084 -0.06647448241710663 0.022812454029917717
-0.03146381676197052 -0.09050281345844269 -0.059108197689056396
-0.026798898354172707 -0.08515903353691101 -0.027336154133081436
-0.056739937514066696 0.13205760717391968 0.06403811275959015
0.10753980278968811 -0.0362640880048275 -0.027279505506157875
-0.11771925538778305 0.058697622269392014 0.011202060617506504
0.03190354257822037 -0.08796437084674835 -0.03722335398197174
-0.008703301660716534 0.020651409402489662 0.1253708451986313
0.08205706626176834 -0.05472623556852341 -0.02257869765162468
-0.09781956672668457 0.051181960850954056 0.029096372425556183
0.0325784757733345 -0.0814390704035759 0.014408258721232414
-0.11698195338249207 0.04429493099451065 -0.00934738852083683
0.04026123508810997 -0.07642628997564316 -0.0073083192110061646
-0.11361955106258392 0.030457299202680588 -0.0037150122225284576
-0.047822706401348114 -0.08178509026765823 -0.05630432814359665
-0.11690738797187805 -0.028140109032392502 -0.11645352095365524
-0.009340237826108932 0.05325658246874809 0.3294770121574402
-0.11631916463375092 0.03359927237033844 -0.04756047949194908
0.014520660974085331 -0.059113092720508575 0.06781210750341415
-0.11738394945859909 0.0636107549071312 -0.006829608231782913
-0.12860605120658875 0.07889105379581451 -0.2080426812171936
0.0008962498977780342 -0.08885329216718674 -0.14406897127628326
0.04889707267284393 -0.09143371880054474 -0.09948202967643738
0.04386653006076813 -0.08438870310783386 -0.02820800244808197
-0.11086099594831467 0.018151242285966873 -0.007113343104720116
0.01510086189955473 -0.09806632995605469 -0.27630314230918884
-0.0544334352016449 0.12810352444648743 0.08028437197208405
-0.1266058385372162 0.032880999147892 -0.11049064248800278
-0.10776315629482269 0.061329521238803864 0.04920748248696327
-0.014073059894144535 -0.043323203921318054 0.05294005572795868
0.03156730905175209 0.0863630622625351 0.10745780169963837
-0.11905112862586975 0.04649506136775017 -0.04098256304860115
0.05574317276477814 -0.0635729655623436 0.0005965523887425661
-0.049428313970565796 0.13651807606220245 0.08775398135185242
-0.03493930399417877 0.06065007299184799 0.11825206875801086
-0.003974432125687599 -0.09235285222530365 -0.05201485753059387
0.002615172415971756 0.02429736964404583 0.2482738494873047
0.09036456793546677 -0.04944421350955963 -0.03555741906166077
0.004722910933196545 -0.08510910719633102 -0.14590482413768768
0.001302267424762249 -0.06615401804447174 0.022577868774533272
0.02373572252690792 -0.09206081926822662 -0.03703179582953453
0.03192988783121109 0.015724938362836838 0.25074970722198486
-0.10725022107362747 0.062429361045360565 0.05271141603589058
-0.09188444912433624 -0.03648495674133301 -0.328549861907959
0.03205261379480362 -0.079673171043396 -0.0005355421453714371
-0.10843134671449661 0.022891221567988396 -0.010045641101896763
-0.020862143486738205 0.00022966787219047546 0.1336858570575714
0.08241467922925949 -0.05436192825436592 -0.022904451936483383
0.04896865040063858 -0.09385599195957184 -0.08403436839580536
-0.05781729519367218 0.054850220680236816 0.129322811961174
-0.046093303710222244 0.14223895967006683 0.06886936724185944
-0.010368937626481056 -0.07319182902574539 -0.00431683287024498
-0.003731217235326767 0.04622426629066467 0.3894563317298889
0.031110350042581558 0.009881861507892609 0.3014959692955017
-0.005750007927417755 -0.051505789160728455 0.04302853345870972
0.010585714131593704 -0.09593737870454788 -0.1676432341337204
-0.10599620640277863 0.05766303464770317 0.03437650948762894
-0.05618920549750328 0.13273301720619202 0.06882716715335846
-0.0735265389084816 -0.05600164458155632 -0.04390854388475418
0.029115406796336174 -0.05027816444635391 0.06830833107233047
-0.041286151856184006 0.12326432764530182 0.09342842549085617
-0.05025634914636612 0.03393310308456421 0.12404109537601471
-0.06235617399215698 0.12928877770900726 0.07766881585121155
0.10350105166435242 -0.04515419900417328 -0.04030537232756615
0.037208978086709976 -0.08611871302127838 -0.03165768086910248
0.025144927203655243 -0.06272166967391968 0.01587158814072609
-0.1153692826628685 0.06087850034236908 0.016870811581611633
-0.06643088161945343 0.07187923789024353 0.4293002486228943
-0.11452779173851013 0.027932491153478622 -0.004966349340975285
-0.01023823395371437 -0.09508049488067627 -0.14233925938606262
0.03805141896009445 -0.09099046885967255 -0.06153815612196922
-0.07720254361629486 0.1577681601047516 -0.2345140278339386
-0.054738134145736694 -0.08065447211265564 -0.06420768052339554
-0.06082628667354584 -0.00885651633143425 0.020531311631202698
-0.1102425828576088 0.01811566762626171 -0.008246331475675106
0.0166949350386858 -0.058572351932525635 0.04979110509157181
0.005779389292001724 -0.01475165318697691 0.13548396527767181
0.029796959832310677 -0.0827098935842514 -0.003445279784500599
-0.0501963309943676 -0.08212588727474213 -0.1077832579612732
-0.08887989819049835 0.14313533902168274 -0.014212843030691147
0.039026983082294464 -0.09158189594745636 -0.054093074053525925
0.026780709624290466 -0.05009281262755394 -0.2965535819530487
-0.08403348922729492 -0.006510372739285231 0.01895429939031601
0.08194458484649658 -0.05649952590465546 -0.021295739337801933
-0.09921079874038696 0.07439078390598297 0.04142990708351135
-0.09745480120182037 0.05354481190443039 0.03750164806842804
-0.11560221016407013 0.12316268682479858 -0.05836925655603409
-0.057391852140426636 0.16806837916374207 -0.11831574887037277
0.005388805642724037 -0.09042862802743912 -0.0703873336315155
-0.04555806517601013 0.003186478978022933 0.09478694200515747
-0.04594837874174118 0.13473722338676453 0.05952893942594528
0.019740981981158257 -0.09467864781618118 -0.14407525956630707
-0.0014848415739834309 -0.01641800068318844 0.11038266867399216
-0.12023740261793137 0.025228604674339294 -0.04650496318936348
0.010555785149335861 -0.02420925162732601 0.11573903262615204
0.08203335851430893 -0.05601155757904053 -0.021114859730005264
0.025681961327791214 -0.08050519227981567 -0.013900244608521461
-0.10868655145168304 0.06296783685684204 0.034359343349933624
0.10665342211723328 -0.002448262646794319 -0.3243612051010132
0.01849471777677536 -0.09226728975772858 -0.044955775141716
-0.0983157828450203 -0.06726773828268051 -0.10784420371055603
-0.015077028423547745 0.03625587373971939 0.38832545280456543
0.0007053334848023951 -0.07288122177124023 -0.0004945255350321531
-0.00790812075138092 0.05638115853071213 0.352923721075058
0.05518319457769394 -0.09453463554382324 -0.2340516299009323
0.08277113735675812 -0.05772770196199417 -0.019182413816452026
-0.09245143830776215 -0.03608348220586777 -0.041908375918865204
-0.11500516533851624 0.09864974021911621 0.021186070516705513
-0.11695143580436707 0.03037063591182232 -0.02959579788148403
-0.04187491163611412 0.03456348553299904 0.4173285663127899
-0.0441637858748436 0.0652705654501915 0.11102372407913208
0.09998501092195511 -0.0525042898952961 -0.23115774989128113
0.09830698370933533 -0.04948117956519127 -0.110030896961689
-0.08855175971984863 -0.019983207806944847 0.0029445216059684753
0.0821385532617569 -0.05630263686180115 -0.020647842437028885
-0.04455364868044853 -0.06572931259870529 -0.31779223680496216
0.08464397490024567 -0.05559571087360382 -0.02227206714451313
0.029528185725212097 0.021006643772125244 0.26901283860206604
-0.09882459789514542 0.11624924838542938 0.05171580612659454
0.011808626353740692 0.09503205120563507 0.12488162517547607
-0.11550973355770111 0.04798929765820503 -0.007064146921038628
-0.11095075309276581 0.01865239441394806 -0.0026311392430216074
-0.10910998284816742 0.017918292433023453 -0.007655334193259478
0.00799422338604927 -0.07837848365306854 0.02645137719810009
0.029131129384040833 -0.08838067948818207 -0.03594743832945824
-0.003929398953914642 0.06515054404735565 0.30846214294433594
0.03822566196322441 -0.08551761507987976 -0.10701440274715424
0.08060194551944733 -0.05978844687342644 -0.024203237146139145
0.027256648987531662 -0.07337233424186707 0.010334902442991734
0.011018514633178711 -0.03432202339172363 0.1063038781285286
-0.055095262825489044 -0.07050862163305283 -0.015554126352071762
0.08671050518751144 -0.05416621267795563 -0.018406808376312256
0.051792118698358536 -0.07411346584558487 -0.01579960435628891
0.057738855481147766 -0.07756245136260986 -0.03047061711549759
0.0074624670669436455 0.013137775473296642 0.3295592963695526
0.0008776122704148293 -0.05171114578843117 0.064250148832798
0.012488637119531631 0.00312255322933197 0.1270887553691864
-0.07684922218322754 -0.023608818650245667 -0.01439362671226263
0.04326746612787247 -0.0886782631278038 -0.05200779065489769
-0.05797037482261658 0.1590457409620285 0.01329090353101492
-0.0426640510559082 0.15659144520759583 0.027942687273025513
-0.11603391170501709 -0.012625429779291153 -0.12233410775661469
0.03461780399084091 -0.0932856947183609 -0.2927165627479553
-0.12702788412570953 0.03848303481936455 -0.0682300254702568
0.037672095000743866 -0.0895494893193245 -0.05371488630771637
-0.08041484653949738 -0.013125304132699966 0.014667279087007046
-0.11394596844911575 0.0449201762676239 -0.005143515765666962
0.06683830171823502 -0.035651590675115585 -0.3540414571762085
-0.0018978356383740902 -0.09593795984983444 -0.05667628347873688
-0.007725255563855171 0.04492468014359474 -0.28596675395965576
-0.017087968066334724 -0.012600772082805634 0.11426509916782379
0.0008689165115356445 -0.006234396249055862 0.4069690704345703
-0.0031163059175014496 0.10040061175823212 0.12315736711025238
0.10867138206958771 -0.04900295287370682 -0.12155301123857498
-0.08985157310962677 0.04051399603486061 0.0782545804977417
0.03412706032395363 -0.08208490163087845 -0.018078932538628578
0.029404176399111748 -0.08487482368946075 -0.03506822884082794
0.013998672366142273 0.062424078583717346 0.20135483145713806
0.027752244845032692 -0.04889059066772461 0.07960067689418793
-0.006741449236869812 0.13580752909183502 0.04432739317417145
-0.10776928067207336 0.060989860445261 0.042289137840270996
-0.07308710366487503 0.16259817779064178 -0.1266351342201233
0.08335904777050018 -0.05863554775714874 -0.020721344277262688
-0.10579525679349899 0.11233718693256378 0.09125000238418579
-0.1185389906167984 -0.012759036384522915 -0.0860067754983902
0.0204774197191 0.1272272765636444 0.04779943451285362
0.03202855587005615 -0.060158949345350266 0.017672449350357056
-0.1158624067902565 -0.014569709077477455 -0.172207772731781
0.016762353479862213 -0.07262256741523743 0.0025727590546011925
-0.10903982073068619 0.038045987486839294 -0.031255222856998444
0.07885417342185974 -0.05655774474143982 -0.030406003817915916
-0.11197389662265778 0.07295830547809601 -0.005305606871843338
-0.063432976603508 -0.08525268733501434 -0.1765965223312378
-0.07481908798217773 0.16089093685150146 -0.2693396210670471
-0.025899704545736313 -0.08176402002573013 -0.026795722544193268
-0.0346161350607872 -0.017195142805576324 0.09631268680095673
-0.08250252902507782 -0.00020203925669193268 0.008617576211690903
-0.07702124863862991 0.07677251845598221 0.14766281843185425
-0.01950564980506897 0.026428358629345894 0.3682269752025604
-0.056427791714668274 -0.0813744068145752 -0.07167994230985641
-0.07394486665725708 -0.05772680789232254 -0.04293267801403999
-0.07406329363584518 0.13177721202373505 0.051369018852710724
0.0030208714306354523 -0.004015911370515823 0.1212475448846817
0.08478641510009766 -0.05654372647404671 -0.02586175687611103
-0.01053662784397602 0.057852353900671005 0.2205682396888733
0.1015762984752655 -0.0292446818202734 0.018404856324195862
0.07937780022621155 -0.06739118695259094 -0.18089088797569275
0.0866452306509018 -0.05616164207458496 -0.010179830715060234
-0.1165066808462143 0.013056629337370396 -0.04867865890264511
-0.0581682026386261 -0.07643797993659973 -0.20335951447486877
-0.07695774734020233 -0.023042134940624237 0.020827826112508774
-0.0035749003291130066 0.025548478588461876 0.25282520055770874
-0.02237847074866295 -0.06552089750766754 0.010636044666171074
-0.012924103066325188 0.0591091588139534 0.24855755269527435
-0.022989138960838318 0.002644360065460205 0.10799681395292282
-0.11030860990285873 0.12342521548271179 -0.11871848255395889
0.08485372364521027 -0.05600398778915405 -0.02094372548162937
-0.10785986483097076 -0.03618137910962105 -0.2798188328742981
0.01469335611909628 -0.09034813940525055 -0.10802720487117767
-0.120905801653862 0.00930478423833847 -0.052231211215257645
0.022258611395955086 -0.05488737300038338 0.042523596435785294
-0.0008605895563960075 -0.07829777896404266 -0.013022264465689659
0.06514085829257965 -0.08706454187631607 -0.20328469574451447
-0.08674047887325287 -0.056990690529346466 -0.06918735057115555
-0.10395914316177368 0.034546416252851486 0.043823398649692535
-0.0962395966053009 0.12520073354244232 0.046087756752967834
0.08590054512023926 -0.05580557882785797 -0.01947459951043129
0.03899146243929863 -0.096077099442482 -0.25446397066116333
0.013705061748623848 0.009647196158766747 0.25771981477737427
-0.0011715777218341827 0.006242755800485611 0.32991477847099304
-0.07703457772731781 0.09613829851150513 0.12822432816028595
-0.052011601626873016 0.1372741460800171 0.08886778354644775
-0.11659622937440872 0.026989344507455826 -0.0027739442884922028
0.05076657235622406 -0.09199467301368713 -0.07501979172229767
-0.00011883676052093506 0.05943308770656586 0.2447299063205719
-0.07844085991382599 0.14460891485214233 0.017791004851460457
-0.024264149367809296 -0.08397381007671356 -0.2286285012960434
0.08292993903160095 -0.05638010799884796 -0.020073270425200462
0.09557730704545975 -0.04573081433773041 -0.037942416965961456
-0.028237687423825264 -0.0994785726070404 -0.22670432925224304
0.02924232929944992 -0.061759427189826965 0.04012385755777359
-0.09259499609470367 0.14543592929840088 -0.2945646643638611
0.01735321618616581 -0.0922299176454544 -0.03030935674905777
0.053010694682598114 -0.08090747892856598 -0.029175318777561188
0.013130143284797668 0.008356966078281403 0.24007326364517212
-0.044028107076883316 -0.04589872434735298 0.03639168292284012
0.08282835781574249 -0.05450795963406563 -0.022572804242372513
-0.0109027698636055 -0.049909062683582306 0.05801791697740555
-0.0450480692088604 0.13696953654289246 0.049766506999731064
-0.08863909542560577 0.04464366286993027 0.07393623888492584
-0.024453843012452126 -0.08792433887720108 -0.0894816517829895
0.01725991815328598 0.03037865459918976 0.1772475242614746
-0.1142132580280304 0.09528282284736633 0.02744637057185173
-0.10575444996356964 0.10606610774993896 -0.3243703246116638
-0.09664253890514374 -0.04147162288427353 -0.057907335460186005
-0.0761726126074791 0.10008922219276428 0.11422966420650482
0.025374900549650192 0.005387328565120697 0.14796307682991028
-0.11530451476573944 0.026599489152431488 -0.034149281680583954
-0.10325469076633453 -0.013094576075673103 -0.02224089205265045
-0.04720465466380119 0.12276408076286316 0.0803837776184082
-0.0745682418346405 0.059550464153289795 0.14404433965682983
0.0024039335548877716 -0.07419634610414505 0.0002887547016143799
0.14268608391284943 -0.010830584913492203 -0.004458184354007244
0.08474037051200867 -0.056113384664058685 -0.020166859030723572
-0.06180804222822189 0.1312398910522461 0.07097253203392029
0.00018714554607868195 0.015573913231492043 0.23938894271850586
-0.045963943004608154 0.13506856560707092 0.058710239827632904
0.010402476415038109 -0.05832912027835846 0.03041304647922516
-0.10715274512767792 0.13245074450969696 -0.054536525160074234
-0.10820139944553375 -0.009030075743794441 -0.01409289613366127
-0.06397894024848938 -0.07995396852493286 -0.11033879965543747
0.08473222702741623 -0.060004182159900665 -0.2373979389667511
0.08349980413913727 -0.05642440542578697 -0.02246922440826893
-0.016143349930644035 -0.09117169678211212 -0.13137295842170715
-0.0023493394255638123 -0.09093954414129257 -0.15404480695724487
0.048542726784944534 -0.007028158754110336 0.12066560983657837
-0.11558765172958374 0.05964723229408264 -0.004083987791091204
-0.09022840857505798 0.03465496376156807 0.09290694445371628
-0.013068269938230515 -0.07390178740024567 -0.01181001216173172
-0.024604814127087593 -0.08253825455904007 -0.03995310515165329
-0.10003920644521713 0.04406674578785896 0.05913454294204712
0.11558431386947632 -0.041097354143857956 -0.051895372569561005
0.07454783469438553 -0.07439230382442474 -0.06242207810282707
0.017404504120349884 -0.07608769088983536 0.008382696658372879
-0.05136965587735176 -0.08874073624610901 -0.15067711472511292
-0.09748701751232147 0.022596001625061035 0.07110395282506943
0.08471443504095078 -0.06475964933633804 -0.28690773248672485
-0.10966657102108002 -0.02834000065922737 -0.10236108303070068
-0.03566630184650421 0.01971680298447609 0.1352965533733368
0.010188007727265358 0.013820905238389969 0.24824272096157074
0.04529537260532379 -0.06300530582666397 0.023181583732366562
-0.12360569834709167 0.10394737124443054 -0.054882727563381195
0.08339931815862656 -0.05425398051738739 -0.01784309558570385
-0.07477602362632751 0.06758111715316772 0.11986907571554184
-0.011779237538576126 -0.049561504274606705 0.06438052654266357
-0.04647861421108246 -0.08457199484109879 -0.18508072197437286
-0.09595224261283875 0.14900460839271545 -0.18643918633460999
0.0612596794962883 -0.0658106729388237 -0.007496059872210026
-0.0794934332370758 0.158608078956604 -0.051324062049388885
0.11568416655063629 -0.03670477122068405 -0.07147271931171417
