-0.10416480898857117 -0.03873604163527489 -0.039351221174001694
-0.10053174197673798 0.04543740302324295 0.011683359742164612
0.10007128864526749 -0.058900997042655945 0.007155090570449829
-0.12668383121490479 0.05829453840851784 0.38221389055252075
0.06793681532144547 -0.004953857511281967 -0.3712049424648285
-0.0807201936841011 -0.0680939108133316 0.07028762996196747
0.04434584081172943 -0.09672196954488754 -0.026069631800055504
-0.12497967481613159 -0.015218251384794712 0.3321170210838318
0.10490454733371735 -0.05981934815645218 0.04239356517791748
-0.10839387774467468 0.025089215487241745 0.007524712011218071
-0.10617546737194061 0.07822155207395554 0.1719418317079544
-0.11231679469347 0.023466190323233604 0.10306093841791153
0.05450061708688736 -0.08922413736581802 -0.05490059778094292
0.07074444741010666 -0.08712726831436157 0.13201142847537994
0.08081785589456558 -0.07341626286506653 -0.15456464886665344
0.057651177048683167 -0.09180867671966553 -0.0011886553838849068
0.049609869718551636 -0.09211806207895279 0.008203529752790928
-0.09102646261453629 0.08380549401044846 -0.06112714111804962
0.08261323720216751 -0.07404650747776031 -0.033340178430080414
-0.08730915188789368 0.08981438726186752 0.029603146016597748
0.051525190472602844 -0.09064814448356628 -0.1622009575366974
0.01438615657389164 -0.07991055399179459 -0.27870047092437744
0.04014381021261215 -0.039191704243421555 -0.3600074350833893
-0.051606692373752594 -0.09240113943815231 -0.17703357338905334
-0.03322918340563774 0.0861559510231018 -0.31089770793914795
-0.04144865646958351 -0.09775980561971664 -0.04124213382601738
-0.10324762761592865 0.08457917720079422 0.26909396052360535
0.0958428904414177 -0.06997412443161011 0.22722218930721283
-0.07135921716690063 0.11228103190660477 -0.0056833019480109215
-0.06563711166381836 0.09240876138210297 0.03507164493203163
0.017857082188129425 -0.10990741103887558 -0.0075684357434511185
-0.06237764656543732 -0.03538273647427559 -0.20103031396865845
-0.10924667119979858 0.06372573226690292 0.27395954728126526
-0.09243582934141159 0.06220829859375954 -0.06088396906852722
-0.08077634871006012 0.09786637127399445 -0.040070418268442154
-0.10709836333990097 -0.03271455690264702 -0.022325962781906128
-0.0052310870960354805 -0.07408034801483154 -0.2563711404800415
-0.10533875226974487 -0.02457444556057453 -0.03461487218737602
-0.10726132988929749 0.020418766885995865 0.01295868493616581
-0.10185948014259338 0.038733016699552536 -0.049229320138692856
0.08721315860748291 -0.06742940098047256 0.046859659254550934
-0.1109618991613388 0.008429449051618576 0.10919192433357239
0.11735966801643372 -0.05069371312856674 0.2704731225967407
0.11340068280696869 -0.04759449511766434 0.055765263736248016
-0.003283705562353134 -0.038681987673044205 -0.3351944386959076
0.00024420954287052155 -0.11621062457561493 -0.12228189408779144
-0.06303028017282486 0.10950018465518951 0.07719695568084717
-0.10817217826843262 0.027230428531765938 0.00455361558124423
0.025188863277435303 -0.09451808035373688 -0.17198686301708221
-0.1078948974609375 0.034003376960754395 -0.13927042484283447
-0.08830861002206802 0.03741434961557388 -0.16583876311779022
0.06682917475700378 -0.05865619331598282 -0.2944587171077728
0.05533023178577423 -0.09483160823583603 0.2318604588508606
0.013235784135758877 -0.10655809938907623 0.2567352056503296
-0.09663404524326324 0.050403472036123276 0.027886195108294487
-0.09715791791677475 0.06233952194452286 0.01577293872833252
-0.10543212294578552 -0.021858222782611847 -0.019600406289100647
0.06389104574918747 -0.08497124165296555 0.10660253465175629
-0.03762892633676529 -0.10338202863931656 0.3488263487815857
-0.12101572006940842 0.04910928010940552 0.2586774528026581
0.10993601381778717 -0.05617011338472366 0.0864533931016922
0.06335678696632385 -0.06815797090530396 -0.18254254758358002
0.04797818511724472 -0.09736576676368713 -0.025089427828788757
0.05805228650569916 -0.08982081711292267 -0.000769871287047863
-0.10021671652793884 -0.06218615919351578 0.2871091365814209
-0.10124506056308746 -0.058008886873722076 0.23471221327781677
-0.062322452664375305 -0.03282323479652405 -0.25142157077789307
-0.10283456742763519 0.05400850623846054 0.008693325333297253
0.10603826493024826 -0.058040253818035126 0.0014350777491927147
-0.060672856867313385 0.10375356674194336 -0.07318368554115295
0.004474342800676823 -0.10905662178993225 0.06250517070293427
-0.04900377243757248 -0.03785040229558945 -0.28652113676071167
0.052306607365608215 -0.09544701874256134 -0.042431168258190155
-0.09812130033969879 0.06916312873363495 -0.12592436373233795
-0.11010253429412842 -0.006106673739850521 0.11680246889591217
0.022223470732569695 -0.09949783980846405 0.2378007173538208
0.056154221296310425 -0.08864881098270416 -0.04697335883975029
0.10060974210500717 -0.054535314440727234 -0.002793798688799143
-0.10815764963626862 0.019135478883981705 -0.01328759454190731
0.09398221224546432 -0.07177695631980896 -0.11251738667488098
0.05502703785896301 -0.09315460920333862 0.042317625135183334
-0.10404828190803528 0.04945004731416702 0.009241234511137009
-0.013954749330878258 0.00441062543541193 -0.40841877460479736
-0.1085219532251358 0.02552306279540062 0.0028446579817682505
0.0878414735198021 -0.07387812435626984 -0.03049735352396965
-0.027887269854545593 -0.1129336804151535 -0.1268194615840912
-0.09095213562250137 -0.016744505614042282 -0.1861586570739746
0.05559849739074707 -0.08911693096160889 0.033840544521808624
0.04565351828932762 -0.0996512770652771 -0.02814887836575508
0.10175877064466476 -0.05692174658179283 0.09251558035612106
0.10202683508396149 -0.06120510399341583 -0.0057557206600904465
0.0800246149301529 -0.09102358669042587 -0.09652097523212433
-0.08986593782901764 -0.06027527153491974 0.07012484967708588
-0.10744498670101166 -0.016041889786720276 0.07102909684181213
0.08502103388309479 -0.08098066598176956 0.14079323410987854
-0.11105145514011383 -0.005795462988317013 -0.05623428151011467
-0.10692356526851654 0.02035483531653881 0.015051426365971565
0.029732655733823776 -0.08853372186422348 -0.1637655347585678
0.07753109186887741 -0.0827573910355568 -0.05318745970726013
-0.10381042957305908 -0.02823571115732193 -0.033773526549339294
-0.11082345247268677 0.03900263085961342 0.12808647751808167
-0.10988660156726837 -0.021022740751504898 0.08595750480890274
-0.11601857841014862 -0.01884991116821766 -0.12754064798355103
0.06084234640002251 -0.09189008921384811 0.29109877347946167
0.10550788789987564 -0.05986196547746658 0.009087951853871346
0.11013258993625641 -0.05100405588746071 -0.000480888644233346
0.08705693483352661 -0.07411663234233856 -0.0304418932646513
0.0636015236377716 -0.09369000792503357 0.24744395911693573
0.09810381382703781 -0.056863926351070404 0.0012074124533683062
0.07330063730478287 -0.03171616420149803 -0.2937915027141571
-0.10070620477199554 0.010344777256250381 -0.11997867375612259
-0.09637649357318878 -0.05948127061128616 0.09040075540542603
-0.04643816128373146 -0.04358318820595741 -0.29477936029434204
0.06016171723604202 -0.05907265841960907 -0.3176688551902771
0.07262468338012695 -0.07679523527622223 0.10921391099691391
-0.002248539123684168 -0.10505422949790955 -0.16089987754821777
0.08463828265666962 -0.07116711884737015 -0.026709146797657013
0.10412247478961945 -0.05381522327661514 -0.0032693136017769575
-0.10658743977546692 0.022151101380586624 -4.139088559895754e-05
-0.10592611134052277 -0.023959483951330185 -0.037379126995801926
-0.10373146086931229 0.04687982797622681 0.011027639731764793
-0.10883797705173492 0.02502669021487236 -0.005337163340300322
0.06234968453645706 -0.09062325954437256 0.11144047975540161
-0.1044619083404541 0.06140632927417755 0.1366528868675232
-0.036742787808179855 0.06566188484430313 -0.33869922161102295
-0.005074771121144295 -0.10571525990962982 0.25346195697784424
0.04371118173003197 -0.10086442530155182 0.01004819106310606
0.05851748213171959 -0.07357845455408096 -0.16438458859920502
-0.08411481231451035 0.04290516674518585 -0.1464434117078781
-0.06290218234062195 0.11616396903991699 0.1409544050693512
0.059072017669677734 -0.02483249083161354 -0.3669746518135071
-0.1119319349527359 0.03655790165066719 0.05334744229912758
-0.10323494672775269 -0.019167140126228333 -0.13954973220825195
0.08464264124631882 -0.0746038407087326 -0.032549984753131866
-0.11465150117874146 0.04367389902472496 0.21976420283317566
0.07551087439060211 -0.08634515106678009 -0.023590486496686935
-0.10096780955791473 0.05006156861782074 0.015771277248859406
0.05978380888700485 -0.10320597141981125 -0.09567440301179886
-0.11030924320220947 0.029000967741012573 0.10771042108535767
-0.0730062872171402 0.042752671986818314 -0.2210789918899536
0.08322720974683762 -0.07382698357105255 -0.024944184347987175
-0.10516497492790222 -0.02442571148276329 -0.03706875070929527
-0.06392987072467804 0.09260635077953339 -0.1542038917541504
0.07415089756250381 -0.09313119947910309 0.20756489038467407
-0.07826836407184601 0.09441867470741272 0.13088122010231018
-0.060145147144794464 0.10494968295097351 -0.09749901294708252
0.08955810964107513 -0.08252441883087158 -0.12140075862407684
-0.09827582538127899 0.06833799928426743 0.1056411862373352
0.0111769437789917 -0.07366999983787537 -0.3041996955871582
-0.11213275790214539 0.017921702936291695 0.03355899825692177
-0.10864035040140152 0.03886842727661133 -0.0027029020711779594
-0.08896087110042572 -0.07136286795139313 0.15487292408943176
0.00029765255749225616 -0.10478394478559494 -0.15826734900474548
0.10215848684310913 -0.05744420364499092 0.010177810676395893
-0.11123336851596832 0.025109417736530304 0.005045154131948948
-0.12237605452537537 0.01589573547244072 0.26076996326446533
0.1217242032289505 -0.047066580504179 -0.0955139696598053
0.010151759721338749 -0.0701572373509407 -0.32982873916625977
0.06352335214614868 -0.09555195271968842 0.09272615611553192
-0.07833025604486465 0.039301905781030655 -0.19011792540550232
0.10629823058843613 -0.054884910583496094 -0.003924614749848843
0.119717076420784 -0.04005058854818344 0.06814510375261307
0.02709863893687725 -0.10841839015483856 0.03574293851852417
-0.1045532301068306 0.03198324143886566 -0.03375377506017685
-0.09572501480579376 -0.045136626809835434 -0.051536086946725845
-0.10588979721069336 -0.026064006611704826 -0.04334787651896477
0.09515338391065598 -0.06228810176253319 -0.021672885864973068
-0.08122356235980988 0.09084440767765045 -0.10337504744529724
-0.10885252803564072 0.019893325865268707 -0.05532778799533844
-0.09382682293653488 0.06298918277025223 -0.10760949552059174
0.0774470865726471 -0.08362140506505966 -0.0654827356338501
-0.1104368045926094 0.02980627864599228 0.10213188827037811
0.10987971723079681 -0.04547328129410744 -0.03762255981564522
-0.10300375521183014 0.050300031900405884 0.012846331112086773
-0.10353192687034607 -0.02773287706077099 -0.04229806363582611
0.05208742618560791 -0.09693443775177002 0.0008610193035565317
0.0930452048778534 -0.0818430483341217 0.330743670463562
0.02917081117630005 -0.07806254178285599 -0.20087197422981262
-0.10320428013801575 0.049579352140426636 0.004047536291182041
0.05238131433725357 -0.09941600263118744 -0.03074752539396286
-0.06238436698913574 0.11333394795656204 0.07380712777376175
-0.11209481209516525 0.022514626383781433 -0.0191238634288311
-0.10176821053028107 0.056316912174224854 0.18342627584934235
0.10853260010480881 -0.06616432964801788 0.3222465515136719
0.0994495153427124 -0.05765833333134651 -0.0057902890257537365
-0.057363539934158325 0.13416838645935059 0.19684192538261414
0.08538812398910522 -0.07534860074520111 -0.026594579219818115
0.08809523284435272 -0.0886320099234581 -0.15441003441810608
-0.0014871638268232346 -0.10819704830646515 0.28015121817588806
0.020218316465616226 -0.08856776356697083 -0.1729089766740799
0.10204567015171051 -0.057769909501075745 -0.021582607179880142
-0.09314359724521637 0.07366663217544556 0.08774782717227936
-0.07949721813201904 0.07924225926399231 -0.05174936354160309
0.0824553444981575 -0.07742875814437866 -0.026230793446302414
0.07431720197200775 -0.07848595827817917 0.06269976496696472
-0.04004610702395439 -0.05481738597154617 -0.19033318758010864
-0.046398282051086426 0.10020382702350616 -0.18568535149097443
-0.07355344295501709 -0.08058428764343262 0.08868928253650665
-0.06196780502796173 -0.09487547725439072 0.3024498522281647
-0.023033346980810165 -0.09044864773750305 -0.18823131918907166
-0.10686258971691132 0.03863643482327461 0.12715186178684235
-0.10520830750465393 -0.02398800104856491 -0.03640944883227348
0.07975175976753235 -0.09060116112232208 -0.10678470134735107
0.030580297112464905 -0.09327325224876404 0.28421294689178467
-0.1002902239561081 -0.03694378212094307 -0.12678110599517822
0.0674397349357605 -0.08312433958053589 -0.16286863386631012
-0.029619917273521423 -0.1035124808549881 0.032369181513786316
-0.06280305981636047 -0.08951929211616516 -0.029564306139945984
0.04213904216885567 -0.10238426178693771 0.1720549613237381
0.0799083486199379 -0.08642981946468353 -0.12515944242477417
0.08399534225463867 -0.07350160926580429 -0.025315534323453903
0.08558081835508347 -0.07185933738946915 -0.031539566814899445
0.0763239860534668 -0.08378107100725174 0.09846040606498718
-0.05961726978421211 0.04518897086381912 -0.31487375497817993
-0.08424828946590424 0.08253996074199677 -0.019491273909807205
0.05398612096905708 -0.0930393785238266 -0.000722093740478158
0.07355410605669022 -0.08096419274806976 -0.02309202402830124
-0.11534561216831207 0.07297851145267487 0.3002803325653076
-0.10596216470003128 0.04498498514294624 -0.05911186337471008
0.07728564739227295 -0.09440721571445465 -0.10470257699489594
-0.10868389904499054 0.03549203276634216 0.14055927097797394
-0.04533974453806877 -0.09721852838993073 0.1312577724456787
0.04745187610387802 -0.10253392904996872 -0.025021668523550034
0.07511384040117264 -0.07401329278945923 0.04719885066151619
-0.05305316671729088 0.11760769039392471 -0.14212340116500854
0.048457808792591095 -0.05886457860469818 -0.19993996620178223
0.08717744052410126 -0.07511577755212784 -0.03168701007962227
0.029455997049808502 -0.10159971565008163 0.060083284974098206
-0.01404383685439825 -0.10889990627765656 0.0002259034663438797
0.09941069036722183 -0.06104175001382828 0.07681474089622498
-0.07103542983531952 -0.08316095173358917 0.19873496890068054
0.056695543229579926 -0.09784553945064545 -0.061938703060150146
0.10144709050655365 -0.05520397424697876 -0.0014575114473700523
-0.049705564975738525 0.1223834753036499 0.0005270505789667368
-0.05637649446725845 -0.09574153274297714 -0.061507903039455414
-0.04804188013076782 0.0148543082177639 -0.3234551250934601
0.10751745849847794 -0.05286354944109917 0.0599466897547245
-0.012811291962862015 -0.07869367301464081 -0.19976553320884705
-0.05307403579354286 -0.08945761620998383 0.11370562016963959
0.05143504589796066 -0.08892092108726501 0.038894571363925934
-0.10701138526201248 -0.013234419748187065 0.0633585974574089
-0.11030906438827515 -0.029175885021686554 0.13932034373283386
-0.08797193318605423 0.0746714249253273 -0.015925751999020576
-0.12592896819114685 0.03358810022473335 0.32426342368125916
-0.10808277130126953 -0.006926773581653833 -0.0018329303711652756
-0.1074991375207901 0.04550844430923462 0.10788993537425995
-0.1070338636636734 0.002394548850134015 -0.03967585414648056
0.09046129882335663 -0.07884660363197327 -0.1707262545824051
0.0662207156419754 -0.09135979413986206 -0.044481731951236725
-0.10697036981582642 0.01968931034207344 0.014251209795475006
-0.09409268945455551 -0.05901221185922623 0.01556580699980259
0.03192960098385811 -0.10544973611831665 0.28978121280670166
0.02648307755589485 -0.09064511954784393 -0.1703965961933136
0.08691318333148956 -0.07466934621334076 -0.03194907307624817
-0.09280381351709366 0.09189966320991516 0.17487093806266785
0.0652693510055542 -0.09456387162208557 -0.05575592443346977
-0.10573841631412506 0.02341509237885475 -0.1521470993757248
-0.10980156064033508 0.007988139055669308 0.07242435216903687
-0.03469218313694 -0.040651656687259674 -0.3245934545993805
-0.022653814405202866 -0.10069695860147476 0.2017040252685547
0.10039263218641281 -0.056313637644052505 -0.0003562062047421932
0.0498671755194664 -0.09193235635757446 0.07942576706409454
0.050613585859537125 -0.10317913442850113 0.38895735144615173
-0.10831040143966675 -0.008263497613370419 0.07193164527416229
0.08562463521957397 -0.07496814429759979 -0.03044307604432106
0.06122389808297157 -0.09380806982517242 -0.0053581069223582745
0.05476441606879234 -0.09520776569843292 -0.002332463162019849
-0.12172670662403107 -0.030070150271058083 0.3101879358291626
0.1198551133275032 -0.05819692462682724 0.3714481294155121
0.09688790142536163 -0.0693778246641159 -0.09927787631750107
0.0070313457399606705 -0.05724514275789261 -0.22138969600200653
0.04785440117120743 -0.0994749665260315 -0.021708138287067413
0.017353840172290802 -0.10177631676197052 0.028812352567911148
0.10813026130199432 -0.061148736625909805 0.22267457842826843
-0.10260741412639618 0.04501713812351227 0.011043138802051544
0.10049304366111755 -0.05757860094308853 -0.004765425343066454
0.044087447226047516 -0.10168538987636566 -0.03725248947739601
-0.10744147002696991 0.01023812871426344 -0.05503888800740242
-0.06881608814001083 -0.0012511136010289192 -0.19380949437618256
0.05320356413722038 -0.09465886652469635 0.003934256732463837
0.09663042426109314 -0.06628359854221344 0.05648442357778549
-0.10212559998035431 0.05953514575958252 -0.04318441450595856
0.10509081184864044 -0.06851575523614883 -0.12797263264656067
-0.11658615618944168 -0.02449825219810009 0.2497105896472931
-0.08869776129722595 0.0680350512266159 -0.04546017199754715
0.09478580951690674 -0.07091675698757172 0.20655867457389832
-0.0333276204764843 0.042532309889793396 -0.33484604954719543
-0.10098008811473846 0.02650473639369011 -0.0017563863657414913
0.07889378815889359 -0.08693011105060577 0.2939428687095642
-0.07924151420593262 0.07428605854511261 -0.14274881780147552
-0.09579424560070038 -0.043867453932762146 -0.047629136592149734
-0.030112896114587784 -0.10361678153276443 0.08732189983129501
-0.0956602394580841 -0.053815774619579315 0.17089024186134338
-0.08868184685707092 -0.08480218052864075 0.3614930510520935
-0.10329721122980118 0.05087636038661003 0.013384746387600899
0.10458725690841675 -0.05421464890241623 -0.002025697147473693
-0.04494975879788399 -0.001372750848531723 -0.3467327356338501
0.054067909717559814 -0.09219147264957428 -0.006633843295276165
-0.10832946747541428 -0.016429875046014786 0.03714776784181595
0.0806383416056633 -0.0514405257999897 -0.28316086530685425
0.09978407621383667 -0.05374555289745331 0.00915567111223936
0.004890932701528072 -0.12085998058319092 -0.12138095498085022
-0.06962577998638153 0.10057376325130463 0.07365342974662781
-0.10221895575523376 -0.03608653321862221 -0.02673109993338585
0.05265234038233757 -0.09628081321716309 -0.014574737288057804
-0.10615706443786621 -0.026384973898530006 -0.04196792468428612
-0.09879410266876221 0.10722999274730682 0.32197320461273193
-0.10824759304523468 -0.0030718245543539524 -0.05801687017083168
-0.11417433619499207 -0.002789486665278673 0.14679449796676636
0.08467982709407806 -0.08344852924346924 -0.13251033425331116
-0.10271799564361572 -0.016579903662204742 0.03816092386841774
0.030823981389403343 -0.11394138634204865 -0.11088890582323074
0.06262505799531937 -0.0891486406326294 0.18603233993053436
0.0437774620950222 -0.10774022340774536 -0.15288648009300232
-0.008801963180303574 -0.1124342754483223 0.364014208316803
-0.09835220128297806 0.06042470037937164 0.03410939499735832
-0.10531388968229294 0.05656128376722336 -0.01940406858921051
-0.04379459470510483 -0.09974461793899536 0.11016687005758286
0.08185440301895142 -0.08199723064899445 0.17234541475772858
0.10763755440711975 -0.05887763574719429 -0.0027603283524513245
-0.07666495442390442 -0.0807303637266159 0.07030099630355835
-0.10176347941160202 0.019838912412524223 0.049355581402778625
-0.07180480659008026 0.03622216731309891 -0.26656606793403625
0.05407048016786575 -0.08952314406633377 -0.15549318492412567
-0.09430013597011566 0.07561565190553665 0.08997255563735962
0.04764799028635025 -0.09902854263782501 -0.024485260248184204
-0.03670185059309006 0.04668532311916351 -0.19003726541996002
-0.034702807664871216 -0.10505642741918564 0.34037092328071594
-0.07159771025180817 -0.062021203339099884 -0.19721779227256775
0.10921265184879303 -0.06308604776859283 -0.08581186085939407
0.05215353146195412 -0.09388758987188339 0.08892625570297241
-0.08971354365348816 -0.07057103514671326 -0.1251363605260849
-0.00893328431993723 -0.10404127836227417 0.21197345852851868
0.06669022142887115 -0.08839245140552521 -0.058401718735694885
0.04992420971393585 -0.09821189939975739 0.006741443648934364
0.023337222635746002 -0.10183156281709671 0.12219628691673279
-0.03103642165660858 -0.10838640481233597 -0.12084007263183594
-0.057017434388399124 0.05793633311986923 -0.2481462061405182
-0.051353633403778076 0.1226121261715889 -0.03757740557193756
-0.06265533715486526 -0.023465389385819435 -0.2816031277179718
-0.10552376508712769 -0.025498367846012115 -0.03805621713399887
0.004674986004829407 0.04374449700117111 -0.4540373980998993
-0.1070849597454071 0.03319241851568222 -0.017073746770620346
-0.10891592502593994 -0.034879568964242935 0.11123210936784744
-0.10856468975543976 0.021730294451117516 0.002805763389915228
-0.10074777901172638 0.041132621467113495 -0.13168096542358398
-0.09441546350717545 0.07376348227262497 0.15352308750152588
-0.10365697741508484 0.04935351386666298 -0.07346063107252121
-0.10909301787614822 0.026599742472171783 -0.005060673225671053
-0.11127592623233795 0.024472875520586967 0.022420361638069153
-0.1102646142244339 0.027920354157686234 0.004994397517293692
-0.07626159489154816 -0.05654603987932205 -0.17413990199565887
-0.06010248512029648 0.052727971225976944 -0.1891784369945526
-0.10279633104801178 0.04959316551685333 0.017559871077537537
0.040605273097753525 -0.10412797331809998 0.3110392391681671
-0.0003170100972056389 -0.07384777069091797 -0.24992036819458008
0.110741525888443 -0.05331466346979141 0.004673093557357788
0.04822957515716553 -0.09881183505058289 -0.012371113523840904
-0.11307992041110992 -0.013753538951277733 0.10376840829849243
-0.0743001326918602 0.06790755689144135 -0.17013046145439148
-0.07442929595708847 0.01772521622478962 -0.26729899644851685
-0.11453410983085632 0.03998162969946861 0.1087036281824112
-0.1059010922908783 0.01563803106546402 -0.009817549958825111
-0.11115135997533798 -0.02416422590613365 -0.123837411403656
-0.09914278984069824 0.04665416106581688 0.012906264513731003
0.05069195106625557 -0.09385903179645538 0.00233742268756032
0.07044988870620728 -0.09010232985019684 0.15784135460853577
-0.10351021587848663 0.072067029774189 0.15002670884132385
0.08859124779701233 -0.07110832631587982 -0.02829749323427677
0.0928589254617691 -0.03393879160284996 -0.3081672191619873
-0.03444721922278404 0.0808490514755249 -0.27263277769088745
-0.10825669765472412 -0.01583189144730568 0.0680675208568573
-0.09468972682952881 0.08189131319522858 0.09789101779460907
0.028044192120432854 -0.11359496414661407 0.3844195604324341
0.1084221601486206 -0.07152555137872696 -0.0989491418004036
0.08618403226137161 -0.07362096011638641 -0.029512552544474602
0.05566803365945816 -0.09523957967758179 0.10633546113967896
0.056922703981399536 -0.0901644378900528 0.19755512475967407
-0.08329037576913834 -0.04725923389196396 -0.16713550686836243
-0.08713356405496597 0.10824620723724365 0.27126145362854004
-0.10221835970878601 -0.028218762949109077 -0.03714491426944733
-0.1054680347442627 -0.02539602294564247 -0.04361385107040405
-0.10949203372001648 0.030383678153157234 -0.007285655476152897
-0.08429327607154846 0.0032849302515387535 -0.18524116277694702
-0.07555517554283142 0.08845925331115723 0.04099893197417259
-0.055246856063604355 -0.09599623084068298 -0.016282010823488235
0.08230409026145935 -0.07456862926483154 -0.03336218371987343
-0.05613020807504654 -0.06945069134235382 -0.16371259093284607
-0.06625892221927643 0.11472128331661224 0.1663157194852829
0.11184252053499222 -0.058790549635887146 -0.13079190254211426
0.022117681801319122 -0.10163602977991104 -0.1583605259656906
0.019947607070207596 -0.10962358117103577 -0.016619836911559105
0.002966740168631077 -0.11442461609840393 -0.05121152475476265
-0.07521511614322662 0.11747761070728302 0.2692965865135193
-0.10740205645561218 0.03987066075205803 -0.09654292464256287
-0.07129230350255966 0.013173118233680725 -0.29297780990600586
-0.10262870043516159 0.04769319295883179 0.01328628696501255
0.09796855598688126 -0.06038639694452286 -0.011709059588611126
0.07349284738302231 -0.0909649208188057 -0.045816175639629364
0.01912367343902588 -0.11161554604768753 -0.048959724605083466
0.07808826863765717 -0.08151020109653473 0.12103485316038132
-0.10548431426286697 -0.026411147788167 -0.05427290126681328
0.10419086366891861 -0.0589555948972702 -0.14294952154159546
-0.08421795815229416 0.08350862562656403 -0.02263544127345085
0.07701323926448822 -0.0752287209033966 0.014391899108886719
-0.052038468420505524 0.05028768628835678 -0.2973463833332062
-0.0722590908408165 0.09871542453765869 0.05490528792142868
0.05880054086446762 -0.09380128979682922 -0.06228557229042053
-0.10730300843715668 -0.018312087282538414 -0.015992825850844383
0.08435577154159546 -0.07529471069574356 -0.025956450030207634
-0.009749933145940304 -0.10265429317951202 0.11654157936573029
0.11954236030578613 -0.042947541922330856 -0.04140728712081909
-0.07842135429382324 0.13344061374664307 0.3405262231826782
0.09582214057445526 -0.05741444230079651 -0.19614379107952118
0.11989039182662964 -0.04324667900800705 -0.09603571891784668
0.08566097170114517 -0.07389439642429352 -0.0314372181892395
0.07410580664873123 -0.02274332381784916 -0.34358084201812744
-0.08820611238479614 0.059331104159355164 -0.16385537385940552
0.07277052104473114 -0.09932135790586472 -0.07886519283056259
-0.10210081934928894 -0.02871052175760269 -0.04412916302680969
0.11628150194883347 -0.038443516939878464 -0.002563709393143654
-0.10465741157531738 -0.02729928493499756 -0.026476414874196053
-0.07355950772762299 -0.08050224930047989 0.1287291795015335
0.04879150912165642 -0.09703844785690308 0.002621288876980543
-0.1076330840587616 0.06307367980480194 0.20115399360656738
0.006621936336159706 -0.07412023097276688 -0.27101266384124756
0.0473121739923954 -0.10033416002988815 -0.0323127843439579
-0.12070134282112122 -0.03613877296447754 0.37837255001068115
-0.07317234575748444 0.09572026133537292 0.06581112742424011
-0.10904993861913681 0.02048904448747635 0.016658132895827293
-0.016674036160111427 -0.10768944025039673 0.03238721191883087
0.09813855588436127 -0.05551119148731232 0.07466163486242294
-0.10992975533008575 0.050774071365594864 0.12389509379863739
0.05531436204910278 -0.089976467192173 -0.0018983747577294707
0.0460236556828022 -0.09938284754753113 0.02882847934961319
0.0948384702205658 -0.06817791610956192 0.049383535981178284
-0.10158899426460266 0.023328328505158424 0.0031851932872086763
-0.10794664919376373 -0.018613073974847794 0.035976629704236984
-0.10307639837265015 0.041272543370723724 0.008704883977770805
-0.11277525126934052 -0.003153417259454727 0.07685403525829315
-0.10416143387556076 -0.025501109659671783 -0.03756275027990341
-0.10717302560806274 0.02418333664536476 0.003764509689062834
-0.10912145674228668 -0.002359300386160612 0.09227226674556732
-0.11131054162979126 0.005700849462300539 0.001739442814141512
0.053935516625642776 -0.06474415212869644 -0.289955198764801
-0.11597796529531479 0.024402817711234093 0.18076297640800476
-0.11608961224555969 0.06144213676452637 0.31257760524749756
-0.061914827674627304 0.11131465435028076 -0.025798428803682327
-0.07921779155731201 0.09163391590118408 -0.04346470534801483
0.014635009691119194 -0.11728620529174805 -0.1121126189827919
-0.08289560675621033 0.12742897868156433 0.3731551766395569
-0.024658173322677612 0.09669213742017746 -0.24879735708236694
-0.10682246088981628 0.02617781236767769 0.010794698260724545
0.08294587582349777 -0.07541203498840332 -0.028720797970891
-0.11228589713573456 0.05397724732756615 0.16310405731201172
0.11518963426351547 -0.04526384174823761 0.17244648933410645
0.10877615213394165 -0.055847205221652985 -0.004935478791594505
-0.1307399719953537 0.0009772974299266934 0.38550570607185364
-0.05108996108174324 0.021709956228733063 -0.20941488444805145
-0.10861901193857193 -0.0187471155077219 -0.016728628426790237
-0.1070425882935524 0.02087031863629818 -0.0008333171717822552
-0.10681706666946411 0.025404077023267746 -0.0003262067912146449
-0.11233942210674286 0.025201182812452316 -0.007628940977156162
-0.11159883439540863 -0.016970593482255936 0.048070766031742096
-0.10894177854061127 -0.005496674682945013 0.03899915888905525
0.09620106220245361 -0.07802550494670868 0.2659375071525574
0.07960999011993408 -0.08359422534704208 -0.03343861177563667
0.10479725152254105 -0.05426754057407379 -0.0009402632713317871
0.09578843414783478 -0.05476100742816925 -0.17301055788993835
0.045452430844306946 -0.09790028631687164 -0.030389390885829926
-0.10730702430009842 0.046287402510643005 -0.055958546698093414
-0.04576236382126808 -0.09930890798568726 -0.03548328951001167
0.05342678353190422 -0.10734282433986664 -0.12016092240810394
0.09832356125116348 -0.06278231739997864 0.048707615584135056
0.040464259684085846 -0.062481969594955444 -0.3417704105377197
0.08442401140928268 -0.0727727934718132 -0.02618745155632496
-0.10141631960868835 -0.02741417847573757 -0.0510522797703743
0.05176037549972534 -0.09391902387142181 -0.005088482052087784
-0.1012466549873352 0.05504639819264412 0.022766508162021637
0.09689626097679138 -0.06770823150873184 -0.07752546668052673
0.01821545884013176 -0.10336899757385254 0.028640542179346085
0.08263541758060455 -0.07637190073728561 -0.022707762196660042
-0.10689225792884827 0.016447393223643303 -0.031006470322608948
-0.1043320745229721 0.04816383123397827 0.013405547477304935
-0.10244786739349365 0.047040052711963654 0.01618974283337593
0.04802360385656357 -0.09665729105472565 -0.020857062190771103
-0.10618465393781662 0.02679731324315071 -0.004044235683977604
0.0449405163526535 -0.09776673465967178 -0.0249381922185421
0.11981593072414398 -0.04452601820230484 -0.14591991901397705
-0.10998152196407318 0.013796007260680199 0.0029288819059729576
-0.0823434367775917 0.1029372438788414 0.1815032958984375
-0.07892626523971558 0.10425136983394623 0.14250227808952332
0.10082130879163742 -0.07757723331451416 -0.10848939418792725
-0.11174656450748444 -0.03545345366001129 0.19322451949119568
0.06236603111028671 -0.08946487307548523 0.13223984837532043
-0.1062098890542984 0.04614660143852234 0.0730828195810318
0.1184459924697876 -0.048234738409519196 0.3138285279273987
-0.10883061587810516 0.026122409850358963 0.09411253780126572
0.0845554992556572 -0.07654190808534622 -0.026216473430395126
0.031049266457557678 -0.10768340528011322 0.35835230350494385
0.04706260561943054 -0.02300371043384075 -0.4298495650291443
-0.10381096601486206 -0.0323488712310791 -0.04468800127506256
-0.10767491161823273 -0.013063784688711166 0.04349628463387489
0.11071350425481796 -0.05113903433084488 0.007509062997996807
-0.1101594790816307 -0.02639319747686386 -0.036037247627973557
-0.07989270985126495 -0.06699709594249725 0.023177094757556915
-0.09404758363962173 -0.053727902472019196 -0.04538317769765854
-0.011246965266764164 0.06358618289232254 -0.3481442332267761
-0.027219301089644432 -0.1045076996088028 -0.15700045228004456
0.08676709234714508 -0.06907415390014648 0.1444675177335739
-0.1048622876405716 -0.043432340025901794 -0.04662507027387619
0.034029752016067505 -0.10172292590141296 0.1013808473944664
-0.05391664057970047 0.06276301294565201 -0.2701602876186371
0.08296016603708267 -0.07538199424743652 -0.027881095185875893
-0.11063230037689209 0.002901574596762657 -0.13349536061286926
0.02533799409866333 -0.024953190237283707 -0.3333302140235901
-0.0909394845366478 0.08746057748794556 0.21467211842536926
-0.10109929740428925 -0.03455079346895218 -0.04511995613574982
-0.06272860616445541 0.10825678706169128 -0.06377623230218887
0.11192943900823593 -0.04968014359474182 0.039851896464824677
-0.12196560204029083 0.0038842670619487762 0.28702086210250854
-0.11487576365470886 -0.03160210698843002 0.22779834270477295
-0.10981296747922897 0.023676566779613495 0.0048853689804673195
-0.08841100335121155 -0.07271751016378403 -0.09268207103013992
-0.08206762373447418 -0.07036672532558441 0.04867853224277496
-0.101281076669693 0.05747683718800545 -0.08321712911128998
-0.033859483897686005 -0.10593883693218231 0.38904353976249695
0.042841456830501556 -0.10828724503517151 -0.1187603622674942
-0.0632435604929924 -0.08499249070882797 -0.07275617122650146
-0.1120772659778595 0.02446063607931137 0.0947129875421524
-0.06489282846450806 0.10616616904735565 0.03304092586040497
-0.10430450737476349 0.047047242522239685 0.01120040100067854
-0.0722099095582962 0.12978538870811462 0.31512773036956787
0.06839050352573395 -0.09417282044887543 0.17486977577209473
-0.1012711375951767 -0.045485228300094604 -0.045213475823402405
0.11020029336214066 -0.0670945793390274 -0.0861758142709732
-0.03837691247463226 0.08690769970417023 -0.18600453436374664
-0.10912799835205078 -0.02400117553770542 0.09161072224378586
-0.05213373899459839 -0.0970020592212677 0.23637738823890686
0.05576780438423157 -0.09885086119174957 0.21454328298568726
-0.06963435560464859 0.11113409698009491 0.051318492740392685
-0.0689423456788063 0.11237950623035431 -0.06293612718582153
0.10562123358249664 -0.050188932567834854 0.04380079731345177
0.0520852655172348 -0.09935209155082703 -0.005061844363808632
-0.10825889557600021 0.023276016116142273 -0.0029482347890734673
0.022699136286973953 -0.10526880621910095 0.14212408661842346
-0.10556098818778992 -0.03254280239343643 -0.04477543383836746
-0.06312587857246399 0.11642982065677643 -0.1034875363111496
-0.10486319661140442 0.012897991575300694 0.05184730887413025
0.0695771872997284 -0.0852554589509964 -0.020627053454518318
-0.10109585523605347 0.050315916538238525 0.01238527987152338
-0.11312734335660934 -0.0008317269384860992 0.09467040002346039
-0.1049669086933136 -0.029410680755972862 -0.046318963170051575
0.057994045317173004 -0.09332739561796188 -0.048313599079847336
0.08584598451852798 -0.07552142441272736 -0.02409919910132885
0.053277455270290375 -0.10300421714782715 -0.13099606335163116
-0.05328787863254547 -0.04481441155076027 -0.20570655167102814
0.04420699179172516 -0.09775641560554504 -0.02475077472627163
-0.06469655781984329 0.10332529246807098 -0.004737149924039841
0.044546112418174744 -0.09948199987411499 -0.0249892920255661
0.011573130264878273 -0.10855273902416229 -0.13482357561588287
-0.09811515361070633 0.0645659863948822 -0.03736322373151779
0.0810377299785614 -0.07359806448221207 -0.021427568048238754
0.05744732916355133 -0.09802213311195374 -0.008538458496332169
-0.09842477738857269 0.0737622007727623 -0.00878292415291071
-0.08879611641168594 0.09108763188123703 0.10770776867866516
-0.014426147565245628 -0.10594983398914337 0.1488676220178604
-0.06747816503047943 0.12861555814743042 0.2382798194885254
-0.10198049247264862 0.07356132566928864 0.1409369558095932
-0.11310462653636932 0.026372840628027916 0.12699389457702637
-0.10712262988090515 0.06002866476774216 0.16023269295692444
0.06631945073604584 -0.09105086326599121 0.1662849634885788
-0.11794985830783844 -0.009645603597164154 0.1919519305229187
-0.07375355064868927 0.10704357922077179 -0.12103931605815887
0.055611707270145416 -0.09065674245357513 0.05934750288724899
0.10781998932361603 -0.05428946763277054 -0.026018520817160606
0.01253092847764492 -0.026961959898471832 -0.3618481755256653
-0.10529564321041107 -0.02876202017068863 0.10795517265796661
-0.10403160750865936 -0.028125669807195663 -0.14346462488174438
-0.11219018697738647 -0.03316345438361168 0.18553027510643005
-0.11038963496685028 0.02536267414689064 0.009037359617650509
-0.11999868601560593 0.017230158671736717 0.20930716395378113
-0.026218775659799576 -0.10648171603679657 0.030097927898168564
-0.1020997166633606 0.0959995836019516 0.2998602092266083
0.04911929368972778 -0.10531992465257645 -0.09949987381696701
0.06991929560899734 -0.08708500862121582 -0.04253864288330078
0.10250692069530487 -0.05860442668199539 0.0020558852702379227
-0.10567143559455872 -0.02547280304133892 -0.02002054825425148
-0.08864562213420868 -0.0659676045179367 0.0443887934088707
-0.10543659329414368 -0.022147832438349724 -0.04135153815150261
-0.07425801455974579 0.03482133895158768 -0.24208658933639526
0.052568189799785614 -0.09362777322530746 -0.05115639418363571
0.09288808703422546 -0.06444526463747025 -0.02753414213657379
0.09517943859100342 -0.0646311417222023 -0.16408959031105042
0.10415808856487274 -0.06723947823047638 -0.030253073200583458
-0.05345573276281357 0.08636718988418579 -0.18056535720825195
-0.0692809522151947 -0.0848572701215744 -0.07226163148880005
-0.10910870879888535 -0.02615910954773426 0.0375765822827816
-0.05382457375526428 0.1270388960838318 0.16566070914268494
-0.09884013235569 0.09045381844043732 0.22496995329856873
-0.11129783093929291 0.03877529874444008 0.07587340474128723
-0.09667085111141205 0.08344195038080215 0.1161835789680481
0.03470217436552048 -0.09959766268730164 0.18941497802734375
0.02111034095287323 -0.11006992310285568 -0.012858277186751366
0.010403335094451904 -0.1184157133102417 -0.08297354727983475
-0.10882626473903656 0.018462438136339188 0.00205686641857028
-0.10568486154079437 0.05240833759307861 0.014388787560164928
-0.10378696769475937 -0.03115628845989704 -0.045605920255184174
-0.10936956107616425 0.015941940248012543 -0.004067090339958668
0.08488154411315918 -0.07330280542373657 -0.030930912122130394
-0.056117717176675797 0.1100502610206604 0.031183360144495964
-0.10954654961824417 -0.022419270128011703 0.1228937953710556
0.04890836775302887 -0.09969175606966019 -0.027380485087633133
0.09441179037094116 -0.06080865114927292 -0.035232603549957275
-0.10673947632312775 0.032232098281383514 0.12222075462341309
0.05870369076728821 -0.08265696465969086 0.093635693192482
0.09319336712360382 -0.07157784700393677 0.10820847004652023
0.08704201132059097 -0.09118568897247314 -0.10994267463684082
-0.10715998709201813 -0.008636802434921265 0.042997993528842926
-0.07340231537818909 0.0932285338640213 0.01873367838561535
0.04555119574069977 -0.08800594508647919 0.12484432756900787
-0.03244617581367493 -0.10020070523023605 -0.04850936681032181
0.04211074858903885 -0.1048281192779541 -0.04030753672122955
-0.10210069268941879 -0.02785314992070198 -0.02060789242386818
-0.08743588626384735 -0.0641508549451828 0.06944014132022858
-0.04963957518339157 0.12279392033815384 0.05389798432588577
0.04832594841718674 -0.10018883645534515 -0.026227621361613274
0.0023531541228294373 0.04578416049480438 -0.3940816819667816
0.09528248012065887 -0.06731221824884415 0.05649913102388382
0.03207913041114807 -0.021360475569963455 -0.46602576971054077
-0.06613057106733322 0.012859312817454338 -0.2430296391248703
0.03964484483003616 -0.10585092008113861 0.3479369282722473
0.08125612139701843 -0.07479932904243469 -0.02467229776084423
0.08704421669244766 -0.0761939138174057 -0.030041079968214035
-0.04051126912236214 -0.09873882681131363 0.14362256228923798
0.10087032616138458 -0.06075959652662277 -0.0010126973502337933
0.0868825614452362 -0.07359829545021057 -0.031755298376083374
-0.08974932134151459 0.0943768098950386 0.15258823335170746
0.1029224842786789 -0.05538313090801239 7.856357842683792e-05
-0.102690190076828 -0.02783365175127983 -0.03314890339970589
-0.1155351921916008 -0.016144884750247 0.15720877051353455
-0.10827933251857758 0.0070578716695308685 -0.07152243703603745
-0.10559694468975067 -0.02319517731666565 -0.04186386242508888
-0.10535457730293274 -0.033388469368219376 0.10142819583415985
-0.11447299271821976 -0.0026175384409725666 -0.08579075336456299
0.04989511892199516 -0.09468396008014679 -0.021380728110671043
-0.10645276308059692 -0.022369597107172012 -0.041576940566301346
-0.10591049492359161 -0.02231985330581665 -0.04157032072544098
-0.10202261805534363 -0.036748845130205154 -0.027837656438350677
-0.10811321437358856 0.02473500370979309 -0.004255146719515324
-0.1035991758108139 -0.00804365798830986 -0.14884190261363983
-0.10612104833126068 0.04998554661870003 0.02013608254492283
-0.0999385192990303 0.04216611757874489 -0.07438160479068756
-0.10857690870761871 -0.06029102951288223 0.3397454023361206
-0.025205299258232117 -0.10417553782463074 0.29780134558677673
-0.08191040903329849 -0.0630209743976593 0.05952305346727371
-0.10575753450393677 -0.025571251288056374 -0.03441408649086952
-0.131580650806427 0.026740187779068947 0.3782668709754944
-0.060834355652332306 0.10429905354976654 -0.08326301723718643
-0.08825017511844635 0.10006633400917053 0.2044413536787033
-0.10583440959453583 -0.023580599576234818 -0.03385759890079498
0.013334756717085838 -0.10461921244859695 0.02977757155895233
0.01755043864250183 -0.11058039963245392 -0.014014477841556072
-0.10579968988895416 0.09715193510055542 0.3720802962779999
-0.05587117746472359 0.11550306528806686 0.03155238926410675
0.010784432291984558 -0.10675525665283203 0.3301349878311157
0.08581839501857758 -0.06791649013757706 -0.18409037590026855
0.04624968394637108 -0.08502867817878723 -0.18135742843151093
0.08276775479316711 -0.07566296309232712 -0.026700792834162712
0.08055560290813446 -0.08776745200157166 -0.039055876433849335
0.08034586161375046 -0.08611981570720673 -0.11445166170597076
-0.11051037162542343 0.07401446998119354 0.24451333284378052
-0.10709942132234573 -0.02587948553264141 -0.04136074334383011
0.0633261501789093 -0.09651744365692139 0.2548729479312897
-0.004101328551769257 -0.09477794915437698 -0.18405655026435852
0.02962888963520527 -0.09937667101621628 0.07932361215353012
-0.07497414946556091 0.09178623557090759 -0.0707133486866951
-0.01117205061018467 0.024219730868935585 -0.3694562613964081
0.08938786387443542 -0.04690449312329292 -0.20710396766662598
0.050035517662763596 -0.09440360963344574 0.010846435092389584
-0.07957392930984497 -0.0829307958483696 0.0067379772663116455
0.07852475345134735 -0.08443672209978104 -0.02997065708041191
0.019811714068055153 -0.1012951210141182 0.17134544253349304
0.013969249092042446 -0.029771670699119568 -0.3871595859527588
-0.06841627508401871 -0.03684985637664795 -0.19270138442516327
-0.10537314414978027 -0.0351080521941185 0.030678480863571167
0.08211320638656616 -0.07552698254585266 -0.02563386783003807
-0.03549656644463539 -0.0663616731762886 -0.20242303609848022
0.050696924328804016 -0.09452787041664124 0.013647804968059063
-0.055038806051015854 -0.09470441937446594 0.26552361249923706
-0.09630163013935089 -0.04840444400906563 -0.0409279465675354
-0.10612225532531738 -0.01591058447957039 -0.036655180156230927
0.09929471462965012 -0.056941062211990356 0.0016667977906763554
0.08605966717004776 -0.0876554623246193 -0.13575702905654907
-0.008413773030042648 -0.10650117695331573 0.18219763040542603
-0.09760446846485138 0.05827870965003967 0.02171160653233528
-0.11238764226436615 0.024252355098724365 -0.10141731053590775
-0.09681063890457153 0.06462021917104721 -0.1482008397579193
0.056909799575805664 -0.08854691684246063 0.050123028457164764
0.09749735891819 -0.06176547706127167 0.0010250431951135397
-0.11153428256511688 0.016918368637561798 0.0025460985489189625
-0.10893687605857849 0.04824729636311531 0.1769137680530548
-0.08599327504634857 0.07673579454421997 0.013242182321846485
-0.0978269875049591 0.07476627826690674 0.022768322378396988
0.08200055360794067 -0.08993611484766006 0.3438916504383087
0.08446653187274933 -0.07352519035339355 -0.025849558413028717
0.09939046204090118 -0.06966811418533325 -0.11527526378631592
-0.029770616441965103 -0.05682024359703064 -0.30388081073760986
0.06871530413627625 -0.07636378705501556 -0.1917227953672409
-0.062351569533348083 0.09796565771102905 -0.1616043597459793
-0.11140715330839157 0.027765464037656784 0.12315284460783005
-0.11196577548980713 -0.015974856913089752 0.07620199024677277
-0.013001177459955215 -0.10873547196388245 0.12778210639953613
-0.05630842596292496 -0.02375509962439537 -0.3127472400665283
0.05548054352402687 -0.09740278124809265 -0.020282048732042313
-0.08828503638505936 0.08979479223489761 0.07936590909957886
-0.10446147620677948 -0.016995010897517204 -0.021399009972810745
-0.0013229523319751024 -0.11568176746368408 -0.13632920384407043
-0.06947959959506989 0.10772138088941574 0.10834147036075592
-0.06667766720056534 0.1093674749135971 -0.0434996634721756
0.08648965507745743 -0.06975021958351135 0.05775079131126404
-0.10301738977432251 0.0489782951772213 0.013578025624155998
0.05907484516501427 -0.09176335483789444 -0.10258495807647705
-0.10235060751438141 -0.028343142941594124 -0.02058650739490986
0.08498066663742065 -0.07311982661485672 -0.03400702029466629
-0.10487939417362213 -0.028345663100481033 -0.03736494109034538
0.09639353305101395 -0.07035379111766815 -0.0789162665605545
0.05988073721528053 -0.08862185478210449 0.05218087136745453
0.07923189550638199 -0.07305904477834702 0.15697947144508362
0.05215433984994888 -0.09338714182376862 -0.03226997330784798
-0.10879980027675629 0.032047729939222336 0.0979970395565033
0.0967971533536911 -0.028984040021896362 -0.2687337398529053
-0.10502204298973083 0.0531807616353035 0.01566741056740284
-0.11072494089603424 0.06228431686758995 0.18454104661941528
0.0602668821811676 -0.09218025207519531 0.041657522320747375
-0.04496285319328308 0.11429095268249512 -0.04568321257829666
-0.0942157506942749 0.07930740714073181 0.1356528103351593
0.11078730970621109 -0.0534423366189003 -0.04995705932378769
0.09194859862327576 -0.07845421135425568 0.189925879240036
-0.05865739285945892 0.13021498918533325 0.23746395111083984
-0.10361373424530029 -0.03236423060297966 -0.019365813583135605
0.0982774943113327 -0.053656768053770065 0.0012345761060714722
0.014989384450018406 -0.10407732427120209 0.1047055795788765
0.04409046471118927 -0.09789411723613739 0.036800567060709
-0.08633801341056824 0.08084125816822052 -0.14459381997585297
-0.06056340038776398 -0.09446261078119278 -0.1270589679479599
0.11494509875774384 -0.05925428867340088 -0.13731534779071808
0.0501718670129776 -0.09581731259822845 -0.0299638994038105
-0.11480554938316345 0.01945127360522747 0.0810745432972908
-0.10520748049020767 -0.02250479720532894 -0.040375739336013794
-0.10624182224273682 0.05141424387693405 0.006682475097477436
-0.10893093049526215 0.031375981867313385 -0.08526880294084549
0.09276164323091507 -0.07388263940811157 0.21391573548316956
-0.07061847299337387 -0.09028811752796173 0.1845986247062683
-0.10110941529273987 -0.03370864316821098 -0.023987438529729843
-0.10359346866607666 -0.031409021466970444 -0.031628288328647614
-0.09530218690633774 0.0818060114979744 0.11587697267532349
0.05067308619618416 -0.09847390651702881 -0.1488972157239914
-0.017021534964442253 -0.11098136752843857 -0.03500645235180855
-0.07111874967813492 0.011507919989526272 -0.26554858684539795
-0.1075998842716217 0.0479450561106205 0.12684378027915955
-0.11533865332603455 0.03349936008453369 0.168426051735878
-0.10265898704528809 -0.011105931363999844 -0.06063059717416763
-0.085610032081604 -0.06728897988796234 0.0711020976305008
0.05816894769668579 -0.08731713891029358 0.0024495511315762997
-0.051750265061855316 -0.004680280573666096 -0.314736545085907
-0.11872045695781708 0.06258691102266312 0.33784544467926025
-0.10134725272655487 0.04630250111222267 0.014504939317703247
0.0739176794886589 -0.08334970474243164 0.36920708417892456
0.0043926360085606575 -0.11408716440200806 -0.03981270641088486
0.01734931766986847 -0.10799850523471832 0.017073538154363632
-0.101896733045578 -0.02967912331223488 -0.02186119556427002
-0.0866384208202362 0.09165385365486145 -0.016673186793923378
