-0.12476080656051636 0.0874444842338562 0.391421377658844
-0.11509133875370026 0.05051351338624954 0.019487300887703896
0.05388066917657852 -0.10190039873123169 -0.01014323253184557
-0.037086911499500275 -0.10348103940486908 -0.12001120299100876
-0.07587709277868271 0.10740972310304642 0.04657196253538132
-0.06892931461334229 -0.08724068105220795 -0.025176696479320526
0.04831511899828911 -0.10264472663402557 -0.0432521253824234
0.05598098039627075 -0.10032244026660919 -0.0052284253761172295
0.0987115353345871 -0.07292641699314117 0.043981898576021194
-0.11919928342103958 0.024389708414673805 0.0001050969585776329
0.11518066376447678 -0.0605262815952301 -0.005455519538372755
-0.11234133690595627 0.014354643411934376 -0.13629424571990967
-0.06769412755966187 0.11353322863578796 -0.09614451229572296
0.0025597522035241127 -0.1072693020105362 -0.049957625567913055
-0.011050475761294365 -0.10882330685853958 0.021764909848570824
-0.00894236471503973 -0.10652139782905579 0.014009639620780945
-0.08332286030054092 0.1238856315612793 0.36762353777885437
0.08919356763362885 -0.017223184928297997 -0.38427478075027466
0.0600099191069603 -0.09416377544403076 0.07145126163959503
-0.12539738416671753 0.04607219994068146 0.04002661257982254
-0.11586210131645203 0.04737279564142227 0.009496505372226238
0.057757697999477386 -0.10183344781398773 -0.0771135464310646
0.05282454565167427 -0.10275675356388092 -0.03931444138288498
-0.003800199367105961 -0.10897888988256454 0.2090476155281067
-0.06323415786027908 -0.08448497205972672 -0.027414590120315552
0.1240994930267334 -0.04977533221244812 -0.08534591645002365
-0.0634959414601326 0.11628235876560211 0.0828477293252945
-0.13232094049453735 0.043101850897073746 0.3039207458496094
0.04444056749343872 -0.1043582633137703 -0.04507779702544212
-0.0006896134582348168 -0.11004631221294403 -0.05679112300276756
-0.01751382276415825 0.10585036873817444 -0.26248809695243835
0.06284485012292862 -0.09645292162895203 -0.02328602224588394
-0.1140536218881607 0.04287465661764145 0.016150156036019325
0.05677221715450287 -0.06757029891014099 -0.310516357421875
0.11375953257083893 -0.0631159245967865 -0.0021203954238444567
0.01927834004163742 -0.10253831744194031 -0.1328059434890747
0.01528017595410347 -0.08260488510131836 -0.2581372857093811
-0.08165991306304932 0.07514643669128418 -0.19945025444030762
0.04294215515255928 -0.10424381494522095 -0.04236065596342087
0.0012479685246944427 -0.11664556711912155 0.3334504961967468
0.10153600573539734 -0.054627466946840286 0.20973461866378784
-0.027523960918188095 0.0819881409406662 -0.32208600640296936
-0.12188953161239624 0.04968028515577316 0.12609964609146118
-0.034516341984272 -0.11119626462459564 0.20729772746562958
-0.06220456212759018 -0.0799412727355957 -0.12892447412014008
0.053314920514822006 -0.09197358787059784 0.1728050857782364
-0.006005721632391214 -0.10083231329917908 -0.14057447016239166
-0.06636275351047516 -0.08267893642187119 -0.03207729011774063
-0.08768270164728165 -0.06457657366991043 0.048402730375528336
-0.08097763359546661 -0.0730423629283905 0.06444796919822693
0.10880320519208908 -0.06727756559848785 -6.84903934597969e-05
0.09663236141204834 -0.07523501664400101 0.10765871405601501
-0.05897916480898857 0.13085316121578217 0.1976872682571411
-0.07783487439155579 -0.07375654578208923 -0.03136314079165459
-0.08152003586292267 0.09642817080020905 0.05982324481010437
0.07861632108688354 -0.08461123704910278 -0.004168465733528137
0.019091516733169556 -0.10206808149814606 -0.14246225357055664
0.010926485992968082 -0.11052048951387405 -0.1219123974442482
-0.11891163885593414 0.03752686083316803 0.024037139490246773
-0.11958050727844238 0.01935773715376854 -0.01113171223551035
-0.060895275324583054 0.11748805642127991 -0.0831487774848938
0.0645618811249733 -0.09431412816047668 -0.020113522186875343
-0.07708834111690521 -0.07775314897298813 -0.031442537903785706
-0.10172170400619507 0.06190637871623039 -0.1318155825138092
-0.01637589931488037 -0.10974336415529251 0.1051456406712532
-0.06573770195245743 -0.0840412825345993 -0.027602894231677055
0.03198937699198723 -0.11107015609741211 0.3025221526622772
-0.11972688138484955 0.016274400055408478 0.006267985329031944
-0.07319186627864838 0.11286170780658722 -0.15450964868068695
-0.11682113260030746 -0.019193010404706 0.05126778781414032
-0.07617980986833572 -0.07511606067419052 -0.08511228114366531
-0.10751566290855408 0.05069122090935707 -0.15116208791732788
-0.09679585695266724 0.05925562232732773 -0.19715538620948792
-0.09802071005105972 0.06210794672369957 -0.17755834758281708
0.06154821813106537 -0.004709823522716761 -0.44456830620765686
-0.10799772292375565 -0.04025590792298317 0.012568673118948936
0.10981947928667068 -0.059566937386989594 -0.00038032326847314835
-0.09869434684515 -0.06560960412025452 0.0862913653254509
-0.03461746498942375 -0.10745278745889664 0.23580583930015564
0.0781753659248352 -0.08799219131469727 -0.011114993132650852
-0.11990240216255188 0.024961015209555626 -0.004234476014971733
0.05821194499731064 -0.09798493981361389 -0.08195207267999649
-0.12591132521629333 0.0038473298773169518 0.1821315586566925
-0.1100146472454071 -0.038628581911325455 0.010316691361367702
-0.11431297659873962 0.024549320340156555 -0.14426298439502716
-0.010852607898414135 -0.10752477496862411 0.02264419198036194
-0.061742931604385376 0.11432337760925293 -0.0966431051492691
-0.11379250138998032 -0.0339219868183136 -0.06827075779438019
0.04621896520256996 -0.1061515212059021 0.3929268717765808
-0.11753861606121063 0.06170561537146568 0.17280668020248413
0.06562628597021103 -0.09163646399974823 -0.02066328004002571
0.06483827531337738 -0.09599657356739044 -0.01642695814371109
0.07940332591533661 -0.07741452753543854 0.10740182548761368
0.01219243835657835 -0.10659483075141907 0.13620784878730774
0.06681903451681137 -0.09300803393125534 -0.018820222467184067
-0.10139232873916626 0.06553860753774643 -0.14707233011722565
0.0570606030523777 -0.09787476062774658 -0.05104842036962509
-0.07061758637428284 -0.08826862275600433 0.22253163158893585
0.022522909566760063 -0.10002356767654419 -0.18928468227386475
-0.10935642570257187 0.02322828397154808 -0.09503358602523804
-0.027466941624879837 -0.10722260177135468 0.02639053761959076
-0.10844270884990692 0.012590689584612846 -0.13877588510513306
-0.016840657219290733 -0.10449488461017609 0.019535545259714127
-0.014142995700240135 -0.10693538188934326 0.01499644573777914
-0.1266130656003952 0.006109698675572872 -0.0022191423922777176
-0.09178020060062408 0.12301666289567947 0.27465271949768066
0.05427766963839531 -0.09753071516752243 -0.004405621904879808
0.10985252261161804 -0.04478166624903679 0.3304496705532074
-0.0640745684504509 -0.0797070562839508 -0.030321989208459854
-0.09310413897037506 0.05448739230632782 -0.22572912275791168
0.04472491145133972 -0.099940225481987 -0.11940138041973114
-0.009229006245732307 -0.10869978368282318 -0.13309699296951294
0.09399066865444183 -0.06915789842605591 0.030338328331708908
-0.11044243723154068 -0.04099584370851517 0.010604269802570343
0.013904698193073273 -0.10460025072097778 0.04880867153406143
-0.11484607309103012 0.03724203631281853 -0.06983281672000885
-0.03978186100721359 -0.11066780239343643 0.29834631085395813
-0.0587041862308979 -0.08554654568433762 -0.08644796907901764
0.06014545261859894 -0.10420967638492584 -0.10194465517997742
0.03859777748584747 -0.10635504871606827 -0.036582205444574356
0.04106565937399864 -0.10146217048168182 -0.03636343777179718
-0.12203885614871979 0.016908317804336548 0.05793551355600357
-0.012561306357383728 -0.10844050347805023 0.10494676232337952
-0.11763869971036911 -0.008298602886497974 0.07959723472595215
-0.10241477191448212 0.09854397177696228 0.2095089554786682
0.052855826914310455 -0.09891609102487564 -0.03587721660733223
0.09071652591228485 -0.08012007176876068 -0.052821557968854904
0.08811019361019135 -0.08078628033399582 -0.1334400177001953
-0.060100097209215164 -0.09562580287456512 0.12723225355148315
0.10387085378170013 -0.05781272053718567 0.026194743812084198
-0.07645385712385178 0.0028850468806922436 -0.31376248598098755
-0.08101337403059006 -0.0685577392578125 -0.028942789882421494
-0.044158197939395905 -0.09539607167243958 -0.04051999747753143
-0.06190855801105499 -0.06228462606668472 -0.25238755345344543
-0.11678026616573334 -0.02300361916422844 0.049573689699172974
0.053683649748563766 -0.10013008117675781 -0.004852439276874065
-0.10438136756420135 0.10550940036773682 0.3779553771018982
-0.07002043724060059 0.12388062477111816 0.1894007921218872
-0.0514899417757988 -0.11494815349578857 0.3678853213787079
-0.05469600111246109 -0.015438197180628777 -0.3556722402572632
0.08318834006786346 -0.07513214647769928 0.10996028035879135
-0.027979044243693352 0.07124151289463043 -0.37315699458122253
-0.005802519619464874 -0.10506274551153183 -0.04840650409460068
-0.11873240768909454 0.03097969852387905 -0.06785242259502411
0.06231704726815224 -0.09401651471853256 -0.017164351418614388
-0.03714536502957344 -0.10264436900615692 0.030208978801965714
-0.11144285649061203 0.0786571204662323 0.1078738123178482
-0.08232590556144714 -0.07047264277935028 -0.08645491302013397
-0.11770588159561157 0.02407004125416279 0.0014270441606640816
-0.11906169354915619 0.04495438188314438 0.010980061255395412
0.06302306801080704 -0.0905008316040039 -0.019601749256253242
-0.11429217457771301 -0.04237981513142586 0.10470227897167206
0.07924205809831619 -0.0698111429810524 -0.22735373675823212
-0.11925927549600601 0.024047931656241417 0.0011543184518814087
0.04559900611639023 -0.1044338047504425 -0.043630704283714294
-0.10780660808086395 0.013242977671325207 -0.16188491880893707
-0.1124015673995018 -0.014071485958993435 -0.050505366176366806
-0.02063637785613537 -0.10436877608299255 -0.13804110884666443
0.04901035130023956 -0.09780626744031906 -0.13750581443309784
-0.05062088370323181 0.10401175916194916 -0.22174248099327087
-0.009085407480597496 -0.10682696104049683 0.019659297540783882
-0.015469045378267765 -0.10887785255908966 0.025303300470113754
0.050136953592300415 -0.1010071262717247 -0.03783009201288223
0.019742650911211967 -0.09645038843154907 -0.18429262936115265
0.005611494183540344 -0.11334267258644104 0.020874060690402985
-0.10878929495811462 -0.042565666139125824 0.011001859791576862
0.04838118702173233 -0.10071355849504471 -0.03334353119134903
-0.07572242617607117 0.10939517617225647 -0.030914306640625
-0.05366886779665947 0.12322700768709183 0.10235927253961563
0.05417148023843765 -0.10187946259975433 -0.006875708233565092
0.054948437958955765 -0.09367311000823975 -0.1353667974472046
-0.0054434677585959435 -0.1037205383181572 0.11594342440366745
0.06757867336273193 -0.03632548451423645 -0.4374012351036072
-0.12227370589971542 0.039575494825839996 0.08947070688009262
-0.03456779569387436 0.10990384966135025 -0.1998542696237564
0.05041814595460892 -0.10137210786342621 -0.03520030900835991
-0.09956212341785431 0.012566618621349335 -0.21492579579353333
0.04594223201274872 -0.10204865038394928 -0.03875330090522766
0.12711714208126068 -0.03965980187058449 -0.15818101167678833
0.08327844738960266 -0.08727924525737762 -0.05334586650133133
0.05036395043134689 -0.09963936358690262 0.16807587444782257
-0.0466681607067585 -0.09713955223560333 0.12268361449241638
0.09979067742824554 -0.07019580900669098 -0.0495959110558033
-0.12423150986433029 -0.014281094074249268 0.1814466118812561
-0.11835674941539764 0.05381922051310539 0.02330688387155533
0.05941981449723244 -0.09470406174659729 0.02290915697813034
-0.07496125996112823 -0.07768570631742477 -0.03086351417005062
0.025640595704317093 -0.10012713074684143 -0.1314433366060257
-0.008579636923968792 -0.10049280524253845 -0.18854936957359314
0.07168768346309662 -0.08314520120620728 0.1519784927368164
-0.054065413773059845 -0.08827795833349228 -0.052703019231557846
0.045151881873607635 -0.10379151999950409 -0.03652788698673248
-0.011397119611501694 -0.10698303580284119 0.02405768260359764
-0.11583712697029114 0.02597782015800476 0.09203961491584778
-0.12019650638103485 0.02478974498808384 0.002746280748397112
-0.01663001999258995 -0.10717412084341049 0.01915556564927101
0.10947352647781372 -0.04740634933114052 0.3934966027736664
-0.04899328202009201 -0.09824234247207642 0.08362606167793274
-0.11548425257205963 0.07219207286834717 0.17085006833076477
-0.11695767939090729 -0.02243686094880104 0.061553530395030975
0.023454248905181885 -0.041100792586803436 -0.4156034588813782
0.02114233560860157 -0.11470340192317963 0.3579678535461426
0.10210704803466797 -0.06538593024015427 0.11147891730070114
0.0035549458116292953 -0.06439942866563797 -0.34620732069015503
0.0381636768579483 -0.09980528056621552 0.045248210430145264
-0.1185198575258255 -0.03098270110785961 0.10809175670146942
-0.002383628860116005 -0.1155712679028511 0.1870710253715515
-0.08511041849851608 -0.07986690104007721 0.10097648203372955
-0.11814087629318237 -0.012594456784427166 0.08025971055030823
-0.07390499114990234 -0.07879014313220978 -0.03309938311576843
0.08831772208213806 -0.07650751620531082 -0.034129682928323746
0.09017940610647202 -0.08282329142093658 -0.09039974212646484
0.09024470299482346 -0.036794163286685944 -0.31359919905662537
0.08177238702774048 -0.08550651371479034 -0.14063802361488342
-0.01030097808688879 -0.10724249482154846 0.02002580463886261
0.055649761110544205 -0.09562860429286957 -0.025896845385432243
-0.11224792897701263 0.06992914527654648 0.049690332263708115
-0.12080851197242737 -0.037892602384090424 -0.029993215575814247
0.05389992147684097 -0.10289858281612396 -0.004948520101606846
-0.1195070669054985 0.04165882617235184 0.05186174437403679
-0.05572524294257164 -0.09681196510791779 0.14587095379829407
-0.06299236416816711 -0.09024649858474731 -0.02181301638484001
-0.11089649796485901 -0.04338710010051727 0.010456519201397896
-0.06520599126815796 -0.08547401428222656 -0.0053466446697711945
-0.11897624284029007 0.02226369082927704 -0.002310974057763815
0.05027884244918823 -0.09360983967781067 -0.10801396518945694
-0.0598430335521698 -0.05967430770397186 -0.22553230822086334
-0.11877455562353134 0.05087955296039581 0.009921383112668991
0.10864543914794922 -0.06656713038682938 -0.0032889777794480324
-0.06278674304485321 0.1229243278503418 0.10391084849834442
0.09379906952381134 -0.07406037300825119 0.0597132109105587
0.04848159849643707 -0.09964664280414581 0.03646605461835861
-0.13465555012226105 -0.028748098760843277 0.36470186710357666
-0.08172418177127838 -0.08320639282464981 0.023330489173531532
-0.06262938678264618 -0.07795640826225281 -0.12362878769636154
-0.10717646032571793 0.09965045750141144 0.24009385704994202
-0.12305710464715958 0.03154047578573227 0.11856795847415924
-0.05168548598885536 0.12376038730144501 0.048872604966163635
-0.10886193811893463 0.07169853150844574 0.02170991525053978
-0.03267235681414604 -0.10273629426956177 0.03225718438625336
0.04557667300105095 -0.10382212698459625 -0.039604123681783676
-0.06451541930437088 -0.08529918640851974 -0.026692673563957214
0.08988255262374878 -0.07186228036880493 0.21826885640621185
-0.08540540933609009 -0.06927801668643951 0.06172182783484459
-0.01378327514976263 -0.08038908243179321 -0.25925734639167786
0.05384502559900284 -0.10076732933521271 -0.005852615460753441
-0.05743066221475601 0.10971082746982574 -0.18145830929279327
-0.00392921082675457 -0.0751800537109375 -0.28854769468307495
0.026826374232769012 0.057571567595005035 -0.505861222743988
-0.06755751371383667 -0.08500941097736359 -0.03111276775598526
-0.10896309465169907 -0.04323913902044296 0.012167079374194145
-0.012898070737719536 0.09439226984977722 -0.31098830699920654
0.07072985917329788 -0.08145557343959808 -0.19825294613838196
-0.017617274075746536 -0.11132267862558365 0.019034286960959435
0.05123956501483917 -0.09727564454078674 -0.007868136279284954
-0.11498065292835236 -0.043073199689388275 0.08987584710121155
-0.1347111463546753 -0.008045753464102745 0.3111018240451813
0.12032437324523926 -0.051990341395139694 -0.06777238845825195
-0.1212548315525055 0.052995357662439346 0.17389747500419617
0.04536731541156769 -0.02475707046687603 -0.5409255623817444
0.008451511152088642 -0.11077326536178589 0.09327328950166702
0.044665101915597916 -0.10257938504219055 -0.03916429728269577
0.04808951914310455 -0.10273903608322144 -0.04060283675789833
-0.057034797966480255 0.0815737247467041 -0.2692478895187378
-0.12923075258731842 0.07411980628967285 0.33508121967315674
0.05509842187166214 -0.09659159183502197 -0.03011437878012657
0.03809480369091034 -0.10016906261444092 0.013065039180219173
-0.07764198631048203 0.11563972383737564 -0.016959141939878464
0.04833460599184036 -0.1018831878900528 -0.03499671444296837
0.0269894041121006 -0.1087474673986435 0.023670025169849396
-0.11173465102910995 -0.018412962555885315 0.04895887151360512
0.043913066387176514 -0.08358631283044815 -0.24901694059371948
-0.11834264546632767 0.02138553559780121 0.09280310571193695
0.0499432273209095 -0.10181409865617752 -0.04294980317354202
-0.028013143688440323 -0.10267630219459534 -0.14053916931152344
-0.008781125769019127 -0.11151280254125595 0.3101981282234192
0.10550328344106674 -0.06555674970149994 -0.11263032257556915
0.07004544883966446 -0.09434495866298676 -0.14367792010307312
-0.08493892848491669 0.002215941436588764 -0.27290475368499756
-0.06649740040302277 -0.07461202144622803 -0.1310003101825714
-0.011117106303572655 -0.10851261019706726 0.02133752591907978
0.07784771919250488 -0.08304557204246521 0.3629123568534851
0.006895554717630148 -0.10150531679391861 -0.2118871957063675
0.02247978001832962 -0.011173234321177006 -0.5631696581840515
-0.012803586199879646 -0.10708722472190857 0.017656933516263962
0.06285654008388519 -0.09086108207702637 -0.0156419537961483
-0.07589670270681381 -0.015963397920131683 -0.30152541399002075
-0.11874913424253464 0.022669555619359016 -0.00023185601457953453
0.09745529294013977 -0.0649782195687294 0.06379711627960205
0.04572202265262604 -0.10007408261299133 -0.038072701543569565
-0.12803012132644653 -0.00337041262537241 0.2524098753929138
-0.07032755017280579 -0.07428154349327087 -0.02766088768839836
-0.11888554692268372 0.005008204840123653 -0.06825073063373566
-0.06671487540006638 -0.08348426967859268 -0.03184943273663521
0.0642043873667717 -0.09513423591852188 -0.02256467193365097
-0.11042849719524384 0.05985001474618912 -0.06851845234632492
0.04470747336745262 -0.09974027425050735 -0.03554297983646393
-0.009981212206184864 -0.1068853959441185 0.020476793870329857
0.055858612060546875 -0.0982985869050026 -0.07296141237020493
-0.02944253943860531 -0.04649094119668007 -0.35880735516548157
-0.018936527892947197 -0.10943753272294998 0.013177884742617607
-0.06494659185409546 0.06128167361021042 -0.2742964029312134
0.1134665384888649 -0.04880613833665848 0.1100657731294632
-0.12101969122886658 0.027106165885925293 0.11896595358848572
-0.023293737322092056 0.006073347758501768 -0.43597960472106934
-0.11934486031532288 0.02115565910935402 -0.0013752533122897148
-0.11132420599460602 0.07265511900186539 -0.04873586446046829
-0.1278836727142334 0.05613328516483307 0.21924792230129242
0.0478726364672184 -0.10174748301506042 -0.03681528940796852
0.05110188573598862 0.03692730888724327 -0.5511846542358398
0.06418091058731079 -0.0970865860581398 -0.009142586961388588
0.030640775337815285 -0.1037093922495842 0.029674097895622253
0.08348369598388672 0.007613731548190117 -0.479662150144577
0.06348982453346252 -0.09756441414356232 -0.02169862575829029
-0.034799590706825256 0.11823924630880356 -0.16658996045589447
0.04682357609272003 -0.09982609748840332 -0.034476179629564285
-0.10504484176635742 -0.05547373369336128 0.002505466341972351
-0.09050878137350082 0.09596379101276398 -0.01923876255750656
-0.017758654430508614 -0.10764682292938232 0.02915208414196968
-0.10038801282644272 0.10906411707401276 0.3392743468284607
0.041006430983543396 -0.10387282073497772 -0.0366637147963047
-0.07531079649925232 -0.07667946815490723 -0.015610167756676674
-0.08969017118215561 -0.08344766497612 0.06871098279953003
-0.0673416405916214 -0.08282691240310669 -0.030847204849123955
0.00894167646765709 -0.07003286480903625 -0.3328656256198883
0.010975996032357216 -0.10597393661737442 -0.11649352312088013
-0.11965856701135635 0.02190609835088253 -0.0008341241627931595
-0.03212635964155197 -0.11054151505231857 0.3129696846008301
-0.12297134101390839 0.022460615262389183 -0.003217346966266632
-0.07713492214679718 -0.07732724398374557 -0.031172960996627808
-0.006857587490230799 -0.10255315899848938 -0.17069756984710693
0.0693613588809967 -0.09177112579345703 0.11838386207818985
-0.0666082501411438 -0.08664067834615707 -0.01748049445450306
-0.018676722422242165 -0.10436655580997467 0.019222868606448174
0.05646221339702606 -0.08984877914190292 -0.0927114263176918
-0.1079760268330574 -0.04187421128153801 0.009690133854746819
0.043170053511857986 -0.10447460412979126 -0.04463066905736923
-0.12227219343185425 0.05180993303656578 0.19454534351825714
-0.017946304753422737 -0.10792040824890137 0.019728362560272217
-0.10782282054424286 -0.021264147013425827 -0.14338594675064087
0.09179098904132843 -0.0713673084974289 0.21999339759349823
0.08980011940002441 -0.07706552743911743 0.05453689396381378
-0.08563246577978134 -0.07131437957286835 0.0711982473731041
0.0795433521270752 -0.09495589137077332 -0.1089591234922409
-0.018010137602686882 -0.10772523283958435 0.025238115340471268
0.09073800593614578 -0.07340827584266663 0.2892839312553406
-0.06469619274139404 -0.086550273001194 -0.02519349940121174
-0.011383719742298126 -0.10803276300430298 0.020661745220422745
0.057591915130615234 -0.09992474317550659 -0.04028281942009926
-0.11712774634361267 -0.019810717552900314 0.04961419105529785
-0.012845839373767376 -0.10757604986429214 0.02128872089087963
-0.11848777532577515 0.05069195106625557 0.0100709218531847
-0.04512805491685867 0.06069723144173622 -0.3402414619922638
-0.1156967282295227 0.04468725621700287 -0.00023400317877531052
0.09264996647834778 -0.05606991797685623 -0.20919391512870789
0.048532355576753616 -0.10156029462814331 -0.036163441836833954
0.06628379225730896 -0.09523627161979675 -0.02210775390267372
-0.11479305475950241 0.07643385976552963 0.11839012056589127
0.0332605317234993 -0.10878407210111618 0.1788894683122635
-0.11806218326091766 -0.01703142747282982 0.07965356856584549
-0.07571104913949966 -0.07064544409513474 -0.13199986517429352
-0.08158436417579651 -0.06957948207855225 0.06503167748451233
-0.10708396881818771 -0.021572308614850044 -0.1266402304172516
-0.08485518395900726 -0.0737733244895935 0.06565016508102417
0.04899108409881592 -0.09400700777769089 0.07708656787872314
-0.11950182914733887 0.0712316557765007 0.1885012984275818
0.029577378183603287 -0.10145983099937439 0.019831620156764984
0.09936896711587906 -0.06958191096782684 0.06355893611907959
0.05445729196071625 -0.09977784752845764 0.21161064505577087
0.11731257289648056 -0.038759395480155945 0.06055651605129242
-0.05701381713151932 0.006738916039466858 -0.35712113976478577
-0.06430432200431824 -0.08324414491653442 -0.03327776491641998
-0.11702406406402588 0.09357284754514694 0.32239460945129395
0.014120190404355526 -0.11057170480489731 -0.022806908935308456
0.04292522743344307 -0.10422471910715103 -0.043009739369153976
0.06985370814800262 -0.09975816309452057 -0.06814205646514893
-0.11850162595510483 -0.027183344587683678 0.07549884170293808
-0.11199621856212616 -0.04313451051712036 0.007849792949855328
0.09253742545843124 -0.07693172991275787 -0.13794434070587158
0.05154690146446228 -0.09958689659833908 -0.022528836503624916
-0.11658965051174164 0.048587288707494736 0.007043100893497467
-0.012594981119036674 -0.10117249190807343 0.02433394268155098
-0.06371913850307465 -0.08547494560480118 -0.02719743363559246
-0.08054736256599426 0.09732889384031296 0.05693883076310158
0.0950169488787651 -0.04775330051779747 -0.2888675332069397
-0.05454914644360542 0.12616580724716187 0.12162724882364273
0.06356296688318253 -0.09545916318893433 -0.07486986368894577
-0.10695704817771912 -0.043008461594581604 0.009179439395666122
-0.11901044845581055 0.053506240248680115 0.02508755959570408
-0.12242799997329712 0.0356285460293293 0.05708513781428337
-0.12009431421756744 0.007650892715901136 0.06692955642938614
0.06715799868106842 -0.09474073350429535 -0.019467152655124664
-0.14869816601276398 0.04362846910953522 0.3886784315109253
-0.07545340061187744 -0.07773983478546143 -0.02789362333714962
-0.08769634366035461 -0.06507161259651184 -0.06353724002838135
0.10874871164560318 -0.06856493651866913 -0.0013895314186811447
-0.021885737776756287 0.02433830313384533 -0.42745494842529297
-0.08142988383769989 -0.07128996402025223 0.05518193170428276
0.010183900594711304 -0.10483622550964355 -0.06624830514192581
0.10358782112598419 -0.06765244901180267 -0.0035612639039754868
0.1129102110862732 -0.055977962911129 -0.0006901398301124573
0.0569814071059227 -0.0970800369977951 -0.0024294950999319553
-0.024690944701433182 -0.10433320701122284 -0.11779750883579254
-0.117975614964962 0.05107138305902481 0.0007029436528682709
0.04538937658071518 -0.10189124941825867 -0.041434258222579956
-0.12074945867061615 0.02967517450451851 0.0934242457151413
0.04213574901223183 -0.09241240471601486 -0.17491689324378967
-0.06672322750091553 -0.08203428983688354 -0.08091440796852112
-0.009579334408044815 -0.10679379105567932 0.020854156464338303
-0.11704361438751221 -0.02427116222679615 0.0757477730512619
0.06490091979503632 -0.09331269562244415 0.20427867770195007
0.027169551700353622 -0.11063358187675476 0.016368599608540535
-0.009163004346191883 -0.10760784149169922 0.017061661928892136
-0.05513719469308853 0.048997774720191956 -0.3376900851726532
-0.06436154246330261 -0.08834455162286758 -0.027000097557902336
0.06256283074617386 -0.0945640429854393 -0.01861758343875408
-0.0008805487304925919 -0.10974489152431488 0.022806620225310326
-0.058414071798324585 0.12076135724782944 0.09068889915943146
0.07304945588111877 -0.04310626909136772 -0.36250758171081543
-0.06110023334622383 0.12083269655704498 0.10157022625207901
-0.12370987981557846 0.03558860719203949 0.12677867710590363
-0.021170523017644882 0.026180028915405273 -0.4945712387561798
0.1102500930428505 -0.039871763437986374 0.057544831186532974
-0.10993340611457825 -0.04348728060722351 0.013696417212486267
0.11746963858604431 -0.06047348305583 -0.0006231525912880898
-0.08205949515104294 0.12936389446258545 0.28811606764793396
0.10556092858314514 -0.04363624379038811 -0.23092883825302124
0.10964100062847137 -0.03998217359185219 0.20177742838859558
-0.1167360246181488 -0.05277518182992935 0.19884447753429413
0.07406935095787048 -0.03467721492052078 -0.4090755581855774
0.10729558765888214 -0.06470657140016556 -0.0014501464320346713
0.06084392964839935 -0.09162025153636932 0.015938540920615196
-0.07000046968460083 -0.07777810096740723 -0.08117398619651794
-0.08455842733383179 -0.06425350904464722 -0.030267927795648575
1.0602176189422607e-05 -0.1103329062461853 0.2776726186275482
-0.09925136715173721 0.10105471312999725 0.19268879294395447
0.021000728011131287 -0.10165899991989136 0.06154759228229523
0.0030730257276445627 -0.1139940470457077 0.2520051896572113
0.04443388432264328 -0.09918679296970367 -0.034502625465393066
-0.06146024540066719 -0.07908101379871368 -0.07629648596048355
0.04104410856962204 -0.11503095924854279 0.38750386238098145
-0.11076042056083679 0.08000577986240387 0.1014602780342102
-0.07476357370615005 -0.0739259198307991 -0.03033212572336197
-0.01590264029800892 -0.10458866506814957 0.018811268731951714
0.04284211993217468 -0.1012987419962883 -0.04263787716627121
0.11597460508346558 -0.06008564680814743 -0.0029961843974888325
-0.02813786454498768 -0.110145702958107 0.023005930706858635
-0.11598776280879974 -0.024703945964574814 0.07647915929555893
-0.0014514384092763066 -0.10728324949741364 -0.053333934396505356
-0.038467537611722946 -0.10732327401638031 0.033014144748449326
-0.11505810171365738 0.05586222931742668 0.07822918891906738
-0.1151406392455101 -0.04583590105175972 0.2365557849407196
-0.01538398489356041 -0.10507506132125854 0.017047233879566193
0.009829089045524597 -0.11570017039775848 -0.02071237936615944
-0.03267957270145416 -0.10792651772499084 0.02182134799659252
-0.11660560965538025 -0.024165945127606392 0.09167347103357315
0.0038827862590551376 0.07911178469657898 -0.3721286654472351
-0.08166293054819107 -0.07062195241451263 0.054959818720817566
-0.0786663144826889 0.10558248311281204 0.02449975721538067
-0.0839720293879509 0.12813401222229004 0.3853360414505005
-0.11458698660135269 -0.001637347973883152 -0.05775100365281105
-0.1187533587217331 0.027987901121377945 0.09261244535446167
-0.06296032667160034 0.1215353012084961 0.09743399173021317
-0.08322112262248993 0.12730316817760468 0.3002891540527344
-0.09207715094089508 -0.044699110090732574 -0.2064337432384491
0.03444639593362808 -0.08963409811258316 -0.1890871524810791
-0.05627750605344772 -0.09307748824357986 -0.050254080444574356
0.05064808949828148 -0.10123873502016068 -0.03728709742426872
-0.11501193046569824 0.05099860578775406 0.02285827323794365
-0.025445977225899696 -0.11315751820802689 0.12266884744167328
0.09542068839073181 -0.056240372359752655 0.26532500982284546
-0.11448290199041367 0.062171220779418945 -0.05395672842860222
-0.1200932189822197 -0.021698016673326492 0.045803993940353394
0.03364814072847366 -0.09730508923530579 0.07808224856853485
-0.025032348930835724 -0.10858882963657379 0.03672279790043831
-0.1172829419374466 0.04905887693166733 0.008208513259887695
-0.06676815450191498 -0.08704954385757446 -0.027122071012854576
-0.11047312617301941 -0.044359270483255386 0.011227128095924854
0.05330578237771988 -0.09849737584590912 -0.0034224791452288628
-0.08248180150985718 -0.050375279039144516 -0.23997414112091064
-0.11564867198467255 0.05094516649842262 0.026175793260335922
-0.02225906029343605 -0.1073443591594696 0.1119646281003952
-0.10211066901683807 0.08233771473169327 -0.030863486230373383
-0.00926370918750763 -0.11149268597364426 0.013835142366588116
0.10563526302576065 -0.07033538818359375 0.011036530137062073
0.08971681445837021 -0.08294206112623215 -0.10870307683944702
0.08263560384511948 -0.07630166411399841 0.34648996591567993
0.004905611276626587 0.065669946372509 -0.43374213576316833
0.11150119453668594 -0.06051252409815788 -0.0011026076972484589
-0.0773262083530426 -0.09032567590475082 0.19009245932102203
0.10954906046390533 -0.06321638822555542 0.0010004276409745216
0.04406524449586868 -0.10392183065414429 0.019228607416152954
0.01855839416384697 -0.10958296060562134 0.11219616234302521
-0.008603353053331375 -0.05259069800376892 -0.3687967360019684
0.12154574692249298 -0.04575318098068237 -0.0027535620611160994
-0.014113913290202618 -0.10720469057559967 0.02106810361146927
-0.06861935555934906 0.10881774872541428 0.04325307533144951
-0.09022890031337738 -0.07454651594161987 0.07292573153972626
0.10510566830635071 -0.07013143599033356 -0.06923310458660126
0.10018961131572723 -0.042849551886320114 -0.24111749231815338
0.023408981040120125 -0.10691918432712555 0.16794279217720032
0.06590378284454346 -0.09475003182888031 -0.018940795212984085
-0.13222742080688477 0.054402951151132584 0.25550734996795654
-0.11822348833084106 0.014544477686285973 0.004036593250930309
-0.11794985830783844 0.0944741815328598 0.2717623710632324
0.04349091276526451 -0.09420999884605408 0.2924047112464905
-0.08984501659870148 0.06467893719673157 -0.15819579362869263
-0.0012323814444243908 -0.11534242331981659 0.38250377774238586
0.06460119783878326 -0.09550352394580841 -0.01879197172820568
0.0067633697763085365 -0.1108379065990448 0.2363111972808838
-0.0879770964384079 0.09224844723939896 -0.015038506127893925
-0.053001757711172104 -0.09026792645454407 -0.047817155718803406
-0.12779122591018677 0.04970695823431015 0.2176734209060669
-0.03425992280244827 0.032353051006793976 -0.3925855755805969
0.11897314339876175 -0.0616515576839447 -0.005810819566249847
0.11295782029628754 -0.04812968522310257 -0.1417049616575241
-0.01038254052400589 -0.10860969126224518 0.018304428085684776
-0.05960413068532944 -0.08990567177534103 -0.05544804409146309
0.045835208147764206 -0.06587566435337067 -0.33126190304756165
-0.06915291398763657 0.11369335651397705 0.06206831708550453
-0.12389399111270905 0.01456025056540966 0.08614212274551392
0.04150696098804474 -0.10848990827798843 -0.035201460123062134
0.016972938552498817 -0.09785784780979156 -0.17981058359146118
0.05606267228722572 -0.10117188096046448 -0.006663349457085133
-0.12377208471298218 0.03285404294729233 0.12130612879991531
-0.03244622051715851 -0.10204041004180908 -0.06686686724424362
0.03857044875621796 -0.10791566967964172 -0.028737671673297882
-0.08546550571918488 -0.07902075350284576 0.07234469801187515
0.09415367990732193 -0.05718870460987091 -0.26157841086387634
-0.1193360909819603 0.024095172062516212 -0.001985483104363084
0.12346924096345901 -0.04335501044988632 -0.09527625143527985
-0.10729006677865982 -0.05335906893014908 0.0035366714000701904
-0.07067720592021942 -0.07302536815404892 -0.026742346584796906
-0.11801565438508987 0.02689971588551998 -0.0015862733125686646
0.04109024628996849 -0.10474969446659088 0.02422390691936016
-0.11928810179233551 0.040384937077760696 0.02227165177464485
0.046770673245191574 -0.10363389551639557 -0.04310417175292969
0.04925026744604111 -0.10463796555995941 -0.04555986076593399
-0.08539314568042755 -0.07120034843683243 0.06594283878803253
0.06307820230722427 -0.09334671497344971 -0.027138613164424896
0.06956484913825989 -0.08780936896800995 -0.02116405963897705
-0.07702852785587311 0.10988769680261612 0.12535525858402252
-0.12936946749687195 0.009172503836452961 0.2156626284122467
-0.07907283306121826 -0.070401631295681 -0.1410018652677536
0.07087987661361694 -0.08895081281661987 0.32648521661758423
-0.11910878121852875 0.09549479186534882 0.37471380829811096
0.07441629469394684 -0.08144894987344742 0.15740801393985748
-0.11536774039268494 -0.03978965803980827 0.15534783899784088
0.0856291726231575 -0.07330542802810669 0.18572203814983368
-0.07885295152664185 0.09744539856910706 0.02367287315428257
-0.10921383649110794 -0.04236243665218353 0.009214553982019424
-0.11879347264766693 0.02127104066312313 0.02188628911972046
-0.12802979350090027 -0.060432545840740204 0.36777931451797485
-0.11954144388437271 0.01841934770345688 0.08710464835166931
-0.04612090438604355 0.12468811869621277 0.006786130368709564
-0.1199721097946167 0.02373296581208706 -0.0030412618070840836
-0.0008836742490530014 -0.11507028341293335 -0.0430726483464241
-0.02945527620613575 -0.10241901874542236 -0.11410325020551682
-0.05607370287179947 -0.07738243043422699 -0.17951570451259613
-0.12177307903766632 0.02151450887322426 -2.1615996956825256e-05
-0.06581013649702072 -0.08113172650337219 -0.03131161630153656
0.04855882376432419 -0.0990709513425827 0.22540594637393951
0.043539874255657196 -0.10074850171804428 0.017447076737880707
-0.11412844061851501 -0.020689887925982475 0.04743180423974991
-0.014131346717476845 -0.10667096823453903 0.018883539363741875
0.047637276351451874 -0.10533369332551956 -0.04345623403787613
-0.11861825734376907 0.05170527845621109 0.021459437906742096
0.08089662343263626 -0.08963283896446228 -0.1062106043100357
-0.08178135752677917 -0.08033636212348938 0.06064344197511673
0.10629303753376007 -0.0451107881963253 0.15378201007843018
0.04170212149620056 -0.10482725501060486 -0.04484911262989044
-0.09074388444423676 0.12416834384202957 0.3597548305988312
-0.1323671042919159 0.06888008862733841 0.31363797187805176
-0.11586415022611618 0.004364572465419769 -0.11193273961544037
-0.013357814401388168 -0.10841421782970428 0.0258831474930048
-0.053495727479457855 0.12343817949295044 -0.06114578619599342
0.09562969207763672 -0.0742843896150589 0.10968729853630066
-0.07426157593727112 -0.07561735808849335 -0.029448505491018295
-0.12067995965480804 0.022652840241789818 0.002197463531047106
0.033949144184589386 -0.10336372256278992 0.03591238334774971
0.11167099326848984 -0.05437139421701431 0.047782108187675476
0.04725572094321251 -0.10709099471569061 -0.03015841916203499
-0.07851995527744293 0.09673041850328445 0.014026260003447533
-0.07924538105726242 0.09812720119953156 -0.07070464640855789
0.037325598299503326 -0.10696005821228027 0.3232216238975525
-0.11854579299688339 0.02237873710691929 -0.0034046792425215244
0.002725011669099331 -0.10069140791893005 -0.22767801582813263
0.05874251574277878 -0.09322391450405121 -0.02172684483230114
-0.06816792488098145 0.10889028012752533 0.027739938348531723
-0.1188342347741127 0.025402970612049103 0.09404787421226501
-0.07149387896060944 -0.0768541470170021 -0.030894864350557327
0.06193749979138374 -0.0945744439959526 -0.018227923661470413
0.057705432176589966 -0.0958407074213028 -0.030445322394371033
-0.05691014602780342 -0.08767937123775482 -0.04017239063978195
-0.11616747081279755 0.08135493844747543 0.21633636951446533
0.07914937287569046 -0.08916923403739929 -0.0571899451315403
-0.05937086045742035 0.12775036692619324 0.20478200912475586
-0.07381729781627655 0.10644789040088654 0.08992087841033936
0.10989350080490112 -0.06625516712665558 -0.003934420645236969
0.062494970858097076 -0.09635892510414124 -0.010230977088212967
0.11173327267169952 -0.059823550283908844 -0.005809403955936432
-0.10714157670736313 -0.039737947285175323 0.01019759476184845
-0.11222834885120392 -0.043015170842409134 -0.060664549469947815
-0.1118149608373642 -0.026140470057725906 -0.05895194038748741
-0.1191006451845169 0.023122668266296387 0.0005978303961455822
0.06303910911083221 -0.09186413884162903 0.017257895320653915
-0.006341448985040188 -0.10850675404071808 0.016251925379037857
-0.0611712709069252 -0.10441995412111282 0.26835083961486816
0.008959966711699963 -0.1077171042561531 -0.10809524357318878
-0.015481197275221348 -0.10617977380752563 0.019275574013590813
-0.01143311895430088 -0.11334820091724396 0.11934379488229752
-0.04672806337475777 0.11838933825492859 -0.09861238300800323
-0.08159983903169632 0.11358153074979782 0.20535914599895477
-0.11511402577161789 0.014231137000024319 0.004140044562518597
-0.10019849240779877 0.06279121339321136 -0.1612466275691986
-0.01151086576282978 -0.12340566515922546 0.4131700396537781
0.0711837038397789 -0.08949118107557297 -0.02137254737317562
-0.06334048509597778 -0.07779065519571304 -0.02942047268152237
0.0030522053129971027 -0.11299091577529907 0.01714284159243107
0.07587718963623047 -0.081284299492836 0.15710213780403137
0.04691155254840851 -0.0991601049900055 0.02095481939613819
-0.11707678437232971 0.0182509608566761 -0.10973897576332092
0.050696805119514465 -0.09101024270057678 0.08320432901382446
0.04777959734201431 -0.10198591649532318 -0.04785367101430893
0.10703159868717194 -0.06145397573709488 -0.15858709812164307
-0.11712168902158737 0.02089650183916092 -0.0014497404918074608
-0.011166316457092762 -0.10023918747901917 -0.17836469411849976
-0.06223275884985924 -0.07895324379205704 -0.13066479563713074
-0.12013580650091171 0.022372674196958542 -0.0036959443241357803
0.10343994200229645 -0.05283477157354355 0.06857055425643921
0.0478498637676239 -0.09950539469718933 -0.04478352516889572
-0.09235034883022308 0.09076323360204697 -0.006057840771973133
-0.1222880482673645 0.028805695474147797 0.09434475004673004
-0.08735113590955734 0.04476984590291977 -0.24200743436813354
0.0633217915892601 -0.09375105053186417 -0.01915127784013748
-0.11843857914209366 0.02255815453827381 -0.002552946098148823
-0.06691865622997284 -0.08400693535804749 -0.03149382397532463
-0.12057307362556458 0.021369507536292076 -0.005815594922751188
-0.016456440091133118 -0.10900179296731949 0.018684057518839836
-0.05791963264346123 0.1183493360877037 0.02169860526919365
0.10671145468950272 -0.020688822492957115 -0.32939574122428894
-0.07267233729362488 -0.08120176941156387 -0.015405666083097458
-0.00665617361664772 0.023414630442857742 -0.5515719652175903
0.08453880250453949 -0.07259278744459152 -0.21139422059059143
0.0021894192323088646 -0.1067393571138382 -0.1195078194141388
0.0867876261472702 -0.07512372732162476 0.07318665832281113
-0.07397572696208954 -0.07564935833215714 -0.032301776111125946
-0.08334110677242279 0.062442436814308167 -0.23132382333278656
0.017910286784172058 -0.102168008685112 -0.15152132511138916
0.048225998878479004 -0.10449002683162689 -0.03204617649316788
-0.10854586213827133 0.07823918759822845 0.09569866955280304
0.03794142231345177 -0.09982918947935104 0.1809912472963333
-0.1087755560874939 0.0920795276761055 0.11891834437847137
-0.019028756767511368 -0.10661987215280533 0.021695192903280258
-0.11189928650856018 0.05805281549692154 -0.019209496676921844
0.1081317663192749 -0.06435137987136841 -0.004419027827680111
0.04633419215679169 -0.10188549757003784 0.10498249530792236
-0.08429277688264847 -0.08630836009979248 0.31838974356651306
-0.073969267308712 -0.07464522123336792 -0.02946823462843895
-0.12130174040794373 0.07770590484142303 0.19856750965118408
-0.12360528856515884 0.05180366337299347 0.1768842339515686
-0.06062597036361694 -0.09414781630039215 -0.02237052284181118
-0.07183606177568436 -0.07194425165653229 -0.12092172354459763
-0.0655200257897377 -0.0800207331776619 -0.07962038367986679
-0.010866228491067886 -0.10661949962377548 -0.04234384000301361
-0.03734246641397476 0.09383980184793472 -0.28895121812820435
-0.04061651974916458 -0.048484791070222855 -0.32442188262939453
0.061110369861125946 -0.08962094783782959 0.04030179604887962
-0.11440468579530716 -0.01922091841697693 0.006263109855353832
-0.06573931872844696 0.11294244229793549 0.02583225443959236
-0.07517600059509277 -0.10185882449150085 0.39729705452919006
-0.112737275660038 -0.04654489457607269 0.010876720771193504
-0.11547204107046127 -0.04611577093601227 0.11464138329029083
0.03739556670188904 -0.05720653384923935 -0.3749457001686096
-0.11409033834934235 -0.01955239102244377 0.04716595634818077
-0.0029436154291033745 -0.10819156467914581 -0.04735526815056801
-0.11935634911060333 0.07489016652107239 0.26117464900016785
-0.12016245722770691 -0.030278094112873077 0.14613984525203705
0.04619164764881134 -0.10768184810876846 0.4092392027378082
0.035086069256067276 -0.08842783421278 -0.21037325263023376
-0.031395040452480316 -0.1083558201789856 0.028241563588380814
-0.11826501786708832 0.024170512333512306 0.0013001234037801623
-0.10958659648895264 -0.04074078053236008 0.0096961110830307
0.04994887858629227 -0.10085032880306244 -0.03422039374709129
-0.07276178896427155 -0.09240628033876419 0.3012145161628723
0.0625988095998764 -0.10080315917730331 -0.08848775178194046
0.04363134503364563 -0.10197480022907257 0.22599124908447266
0.04567459598183632 -0.10238669812679291 -0.034479666501283646
0.07387861609458923 -0.09130315482616425 0.199104443192482
-0.1121097058057785 -0.0200519897043705 0.044487364590168
0.08070231229066849 -0.08144497126340866 -0.17029641568660736
-0.11880279332399368 0.02545774355530739 0.08890606462955475
0.05700533837080002 -0.09503334760665894 -0.03292686492204666
-0.020314455032348633 -0.1035008579492569 0.02724805660545826
0.04965153709053993 -0.09895136207342148 0.009975733235478401
0.0005952343344688416 -0.11294621974229813 0.17360901832580566
-0.11631287634372711 -0.016403192654252052 0.07324610650539398
-0.11672554910182953 0.02815081551671028 0.0949723869562149
-0.11837740242481232 0.06249619275331497 0.09204345941543579
-0.05947341024875641 0.11818373203277588 0.059428244829177856
0.08147551119327545 -0.07975786924362183 0.15476438403129578
-0.028579987585544586 -0.10739734768867493 -0.06777088344097137
0.04342147335410118 -0.10288717597723007 -0.03220020607113838
-0.12311311066150665 0.01941624842584133 0.09191504120826721
-0.12005490064620972 0.022852975875139236 -0.0029954146593809128
0.07082235813140869 -0.08897295594215393 -0.17017489671707153
0.1066216304898262 -0.06737023591995239 -0.020800169557332993
0.03079751878976822 -0.11252450942993164 0.2486795336008072
-0.10728426277637482 -0.044016677886247635 0.008206681348383427
-0.007824176922440529 -0.10747300088405609 0.11631447076797485
-0.015067812986671925 -0.10849365592002869 0.01821795664727688
0.02889876440167427 -0.1040002778172493 0.20716851949691772
-0.06228255853056908 -0.08323939144611359 -0.026813849806785583
-0.1251090168952942 -0.05109766125679016 0.33921512961387634
-0.11849915981292725 0.04917559400200844 0.01302381232380867
0.05487263202667236 -0.1047835499048233 0.266787052154541
0.0009413277730345726 -0.10895455628633499 -0.050501130521297455
-0.05448830500245094 -0.09794256091117859 0.10489661991596222
-0.07726548612117767 0.0970989540219307 0.03695109486579895
0.05755878984928131 -0.09638345241546631 -0.015103325247764587
0.06516126543283463 -0.09605437517166138 -0.01992136612534523
0.11016996204853058 -0.06794028729200363 0.00010047480463981628
-0.038777656853199005 -0.11064902693033218 0.3208683133125305
0.03142799437046051 -0.10514692962169647 0.07367316633462906
0.052668578922748566 -0.09647104144096375 -0.014496599324047565
-0.1263299137353897 0.05163412168622017 0.15328267216682434
0.06561513990163803 -0.08730786293745041 0.17248070240020752
-0.04170604050159454 -0.09343578666448593 -0.054381608963012695
-0.034489959478378296 -0.08649478852748871 -0.18819928169250488
-0.06761991232633591 -0.08336392045021057 -0.0302964448928833
-0.12044715881347656 0.01860232651233673 0.004346057306975126
-0.057781949639320374 0.12427563965320587 -0.06803086400032043
-0.030072472989559174 0.1026245579123497 -0.21278217434883118
-0.06021042913198471 0.12780025601387024 0.22189640998840332
0.03987735137343407 -0.10611237585544586 0.11725972592830658
0.0018697896739467978 -0.10811194777488708 0.011366265825927258
0.038260385394096375 -0.09972973167896271 -0.0363941416144371
-0.07369479537010193 -0.07517476379871368 -0.030683133751153946
0.09128919988870621 -0.07778583467006683 0.3763243854045868
0.06428185105323792 -0.08843453973531723 0.15207691490650177
0.028352772817015648 -0.10692290961742401 0.13885562121868134
-0.07094129174947739 0.10659882426261902 -0.06350445747375488
-0.019751612097024918 -0.06440530717372894 -0.3122883141040802
-0.11837047338485718 -0.022047104313969612 0.07887391746044159
0.09959954023361206 -0.07822935283184052 -0.09411534667015076
0.057839956134557724 -0.09466090798377991 0.02206704393029213
-0.08376049995422363 0.08112227916717529 -0.1788310706615448
0.01449726615101099 -0.042112886905670166 -0.47336602210998535
-0.11064696311950684 0.06481406092643738 -0.007027210667729378
-0.09595504403114319 -0.06752009689807892 0.1708928495645523
-0.06599238514900208 -0.08515093475580215 -0.029738495126366615
0.00013359449803829193 -0.11563476920127869 0.2817419469356537
-0.12321016192436218 0.07935816049575806 0.24396270513534546
-0.11950495839118958 0.025205953046679497 0.0006529814563691616
0.06647422909736633 -0.09267726540565491 -0.02080346830189228
0.041765376925468445 -0.10010340809822083 -0.03660887852311134
0.06741800904273987 -0.08820666372776031 -0.16693717241287231
-0.013445465825498104 -0.08802200853824615 -0.23730438947677612
-0.07706144452095032 0.09834421426057816 -0.09290595352649689
0.029780790209770203 -0.0986848846077919 0.03951407968997955
0.05543065816164017 -0.0919886901974678 0.2960951328277588
-0.06662524491548538 0.11800345778465271 0.1227976530790329
-0.14035354554653168 0.04976548254489899 0.33138880133628845
-0.010362174361944199 -0.11261512339115143 0.020976394414901733
0.03127142786979675 -0.10984551906585693 0.10501301288604736
0.05173199623823166 -0.09376925230026245 0.08074980974197388
-0.12476319074630737 0.023680441081523895 0.0024561122991144657
-0.07640402019023895 -0.0763717070221901 -0.027597228065133095
-0.08581916987895966 -0.07490795105695724 0.09917615354061127
-0.11617177724838257 0.04720885306596756 0.00985427014529705
-0.05921623483300209 -0.07446205615997314 -0.18716798722743988
-0.11944510042667389 0.02561892755329609 -0.0032571875490248203
