0.029802951961755753 -0.07225056737661362 0.009648660197854042
-0.0076940301805734634 -0.07044751197099686 -0.02925978973507881
-0.017602313309907913 -0.055932819843292236 -0.042401108890771866
0.11463870853185654 -0.07683415710926056 -0.08434484153985977
-0.12202408164739609 0.16492044925689697 0.3424365222454071
0.004136780276894569 -0.03156708925962448 -0.2322060912847519
0.15361616015434265 -0.07277153432369232 -0.04912074655294418
-0.08858616650104523 0.0032582487910985947 0.07506369054317474
-0.08908731490373611 -0.06179003417491913 0.31794503331184387
0.05101858079433441 -0.0727926567196846 -0.003468606621026993
0.02131892740726471 -0.06863673031330109 0.0320529006421566
-0.09290000796318054 0.04828529432415962 0.05320098623633385
0.03234325349330902 -0.06421074271202087 -0.015198531560599804
-0.08753478527069092 0.2524402141571045 0.024907460436224937
0.013083374127745628 -0.07067734003067017 0.02678307145833969
0.06118399649858475 -0.07512897253036499 0.0018253149464726448
-0.02510172501206398 -0.0490339919924736 -0.06919318437576294
-0.10008882731199265 0.05736968666315079 0.2302960902452469
-0.03628653287887573 -0.05838420242071152 -0.04561249166727066
-0.11519484221935272 0.07053794711828232 0.2598187029361725
-0.04072459787130356 0.3307085931301117 0.21453048288822174
-0.025470228865742683 -0.05626803636550903 -0.08568506687879562
0.04767760634422302 -0.0644582062959671 -0.0065727150067687035
-0.09015701711177826 0.011223675683140755 0.03585214912891388
0.020531799644231796 -0.059863556176424026 -0.06147003918886185
-0.03418225422501564 -0.06728287786245346 0.021489905193448067
-0.10165372490882874 0.07208713889122009 -0.025612521916627884
-0.08319350332021713 0.11739927530288696 0.3548439145088196
0.2945585250854492 -0.08453163504600525 0.26605847477912903
-0.07489057630300522 0.04735853150486946 0.10533887892961502
-0.09024087339639664 0.041670605540275574 0.019247181713581085
-0.08507855236530304 0.013186913914978504 -0.011980269104242325
-0.0599202960729599 0.011547600850462914 -0.041758522391319275
-0.03145790845155716 -0.07879307121038437 0.40154680609703064
-0.0716884657740593 -0.004266211297363043 0.301887571811676
-0.08950195461511612 0.015119288116693497 -0.00550023652613163
-0.09645266830921173 0.01870451681315899 0.260254830121994
-0.0402304008603096 -0.055677589029073715 0.06472316384315491
-0.09008757770061493 0.04305511713027954 0.1324097365140915
-0.08413767069578171 0.020285720005631447 0.0031100409105420113
-0.09362292289733887 0.07995859533548355 0.10852895677089691
-0.08528593182563782 0.01112127024680376 -0.01456251461058855
-0.08943843841552734 0.015770893543958664 -0.011224901303648949
0.04830653965473175 -0.08791158348321915 0.25555428862571716
0.31944218277931213 0.034135494381189346 -0.19642305374145508
-0.013226436451077461 -0.07959200441837311 0.001987283118069172
-0.12656965851783752 0.1012267917394638 0.3367631435394287
0.012487685307860374 -0.07642361521720886 -0.04625491797924042
-0.027130959555506706 -0.05755040794610977 -0.03774315118789673
-0.0933656096458435 0.004826683551073074 0.025330131873488426
-0.07347492128610611 0.012315039522945881 -0.016211144626140594
-0.022373687475919724 -0.06081791967153549 0.012379592284560204
-0.08469603210687637 0.022532157599925995 0.020296655595302582
-0.08981335163116455 0.01742865890264511 0.0045099761337041855
0.054981593042612076 -0.08381785452365875 0.2656318247318268
-0.08765288442373276 0.061164915561676025 -0.014648097567260265
-0.08644954860210419 0.04208938404917717 0.12209947407245636
0.035947397351264954 -0.07377395033836365 0.09466014057397842
-0.002580673433840275 -0.07968765497207642 0.14720425009727478
0.037760235369205475 -0.07064181566238403 0.15087467432022095
0.14530697464942932 -0.07405944168567657 0.20322802662849426
0.048952218145132065 -0.06836508959531784 -0.22321639955043793
-0.015862783417105675 -0.04934060201048851 -0.07614872604608536
0.027472229674458504 -0.062000174075365067 0.007666374556720257
0.011431509628891945 -0.0718766301870346 0.03575238212943077
-0.0795111283659935 0.016741888597607613 0.06681327521800995
-0.007764171808958054 -0.07348953932523727 0.3113868236541748
-0.00429137609899044 -0.06192447617650032 0.028473570942878723
-0.08666648715734482 0.06379826366901398 0.042406752705574036
0.31054937839508057 0.0013511590659618378 0.13687646389007568
-0.006961097475141287 -0.06622424721717834 0.02339247614145279
0.11587242037057877 -0.07193382829427719 0.02382340282201767
-0.09777902066707611 0.05273861438035965 0.2917992174625397
0.01752622053027153 -0.05998906120657921 0.022895045578479767
-0.08523786067962646 0.0245160311460495 0.022471986711025238
-0.019648440182209015 -0.05296620726585388 0.047793466597795486
0.3027822971343994 0.015595588833093643 0.3882737457752228
-0.07720237225294113 0.30543258786201477 0.4075717329978943
0.019313998520374298 -0.06299282610416412 0.025220872834324837
-0.004739945754408836 -0.07216329127550125 -0.003600343130528927
0.029015488922595978 -0.06822386384010315 0.1476520299911499
0.24438057839870453 -0.09265675395727158 0.4015888273715973
-0.006627609021961689 -0.06797647476196289 -0.05237977206707001
-0.08100660145282745 0.0049489811062812805 0.022014107555150986
-0.04054888337850571 -0.020229164510965347 -0.005239538848400116
0.028138188645243645 -0.06874331831932068 -0.02643986977636814
0.06902248412370682 -0.07623252272605896 0.011753901839256287
-0.1047755628824234 0.04190080612897873 0.32469451427459717
0.015869027003645897 -0.07139704376459122 0.018431132659316063
-0.08740817755460739 0.008183865807950497 0.0073812371119856834
0.20913484692573547 -0.09018769860267639 0.38459351658821106
0.006049854680895805 -0.058887213468551636 -0.0036012977361679077
-0.0052523426711559296 -0.06883067637681961 0.004755103960633278
-0.07983765751123428 0.017707370221614838 -0.030459897592663765
-0.07437245547771454 -0.05671931058168411 0.026018790900707245
0.21337535977363586 -0.08309373259544373 0.2699505090713501
0.28483477234840393 -0.011960368603467941 -0.1480896770954132
-0.08353912830352783 0.01461299043148756 -0.011264631524682045
-0.006899815518409014 -0.050829336047172546 -0.008673317730426788
0.012452586553990841 -0.0696815699338913 0.013983679935336113
0.025397026911377907 -0.06519512832164764 0.008375165984034538
-0.009236561134457588 -0.06775199621915817 -0.014379965141415596
-0.024535953998565674 -0.05581354349851608 -0.041765108704566956
-0.016865411773324013 -0.07818492501974106 -0.0013095550239086151
0.07297147065401077 -0.0982045978307724 0.3914683163166046
0.31696072220802307 0.04174283891916275 0.1976282000541687
0.004744809120893478 -0.06250671297311783 -0.009939927607774734
0.029186172410845757 -0.06706152111291885 -0.016160329803824425
-0.0794854685664177 0.01159813441336155 -0.05023813247680664
0.023744793608784676 -0.06073452904820442 0.025173712521791458
-0.02600172720849514 -0.07103827595710754 0.013401632197201252
-0.0646170899271965 -0.01522606797516346 -0.03464148938655853
-0.11091463267803192 0.11898795515298843 -0.04271624609827995
0.0414678230881691 -0.07100875675678253 -0.016186267137527466
-0.0014342162758111954 -0.07426390051841736 0.0226803757250309
0.14857694506645203 -0.06288768351078033 -0.007433225400745869
0.198251411318779 -0.08572245389223099 0.3499198853969574
0.17884057760238647 -0.07223208248615265 0.10160937905311584
0.12260760366916656 -0.07015660405158997 0.02974092960357666
-0.0842805802822113 0.009127248078584671 0.07372958958148956
0.16277402639389038 -0.06566620618104935 -0.0094114625826478
-0.0897999182343483 0.017542056739330292 0.018454372882843018
-0.07657615840435028 0.029434064403176308 -6.549805402755737e-05
0.011027894914150238 -0.07012161612510681 0.03002941608428955
-0.0862552598118782 -0.004709665663540363 0.08156079053878784
-0.09078618139028549 0.051600851118564606 -0.15074771642684937
-0.07549811899662018 -0.010596122592687607 0.4118412435054779
0.03587368130683899 -0.06951327621936798 -0.02191072329878807
0.014275645837187767 -0.07982973009347916 0.1170215830206871
-0.10059285163879395 0.11858340352773666 -0.0879235565662384
0.00202992744743824 -0.07910861074924469 0.13777309656143188
-0.03204086422920227 -0.03291277959942818 -0.100296750664711
-0.03887748718261719 -0.04054561257362366 0.01994248479604721
-0.025688983500003815 -0.06017763167619705 -0.02354496344923973
0.02358459122478962 -0.07741252332925797 -0.01329783909022808
-0.040179260075092316 -0.062001027166843414 0.015085028484463692
-0.033329617232084274 -0.057861585170030594 0.09713193774223328
-0.08889780193567276 0.01033112220466137 0.002166133373975754
0.05708036571741104 -0.07112788408994675 0.1547495275735855
0.040404222905635834 -0.0733972042798996 -0.015990931540727615
-0.08038826286792755 0.024963784962892532 -0.00086221843957901
-0.0953560471534729 0.041073720902204514 0.22495627403259277
0.04370121285319328 -0.06950433552265167 0.0005142353475093842
-0.087537482380867 0.030034465715289116 -0.02121327817440033
-0.08607011288404465 0.02133243903517723 -0.003984622657299042
-0.08730919659137726 0.0035348478704690933 0.0682259351015091
0.3166830241680145 0.01441139541566372 -0.06910533457994461
0.18285733461380005 -0.0784018412232399 -0.20065852999687195
0.11141905188560486 -0.0745290219783783 0.003741733729839325
0.0014474187046289444 -0.060448888689279556 -0.06765684485435486
-0.11131700873374939 0.11455249786376953 0.13274988532066345
0.012167185544967651 -0.0669768899679184 -0.00415620394051075
0.009654398076236248 -0.0958627313375473 0.37622037529945374
-0.07242965698242188 -0.07212471216917038 0.06240883469581604
0.08580296486616135 -0.08252713829278946 0.06382720172405243
-0.0743526816368103 0.03010207787156105 -0.03609628230333328
-0.09808757901191711 0.07941043376922607 0.033559225499629974
0.02524866908788681 -0.06542187929153442 -0.07548201084136963
0.06756256520748138 -0.07139144837856293 0.07987168431282043
0.03352180868387222 -0.06255774945020676 0.04258321225643158
-0.007433855906128883 -0.05463596433401108 -0.0913650244474411
0.1567390412092209 -0.07413844019174576 0.0038505420088768005
0.029322709888219833 -0.06781154125928879 -0.012892868369817734
0.223530113697052 -0.05226391553878784 -0.03698083385825157
-0.08467218279838562 -0.005938859656453133 -0.021411942318081856
0.09527239203453064 -0.07677070051431656 0.10670138150453568
0.0010485448874533176 -0.08021588623523712 0.08402645587921143
0.20552577078342438 -0.0744280219078064 0.12707315385341644
-0.08711224794387817 0.014804097823798656 -0.007784547749906778
-0.08008527010679245 0.05431220680475235 -0.03883187100291252
0.012956124730408192 -0.0693010687828064 -0.0039327796548604965
0.006781683303415775 -0.0661579817533493 0.20962265133857727
-0.07464244961738586 0.033271439373493195 0.10776273161172867
-0.034544508904218674 -0.06401219964027405 0.06477708369493484
-0.0834992453455925 0.018338067457079887 -0.007256563752889633
-0.09635519236326218 0.027050018310546875 0.2946415841579437
-0.08925992250442505 0.001821586862206459 0.0716831386089325
0.2895447015762329 -0.0941295176744461 0.4187667965888977
0.15814948081970215 -0.07368399202823639 0.1522994190454483
0.06105774641036987 -0.06249784678220749 0.03587330877780914
0.01930912956595421 -0.07912465929985046 -0.02010517008602619
-0.07049847394227982 0.005458928178995848 0.0804269090294838
-0.08873570710420609 0.056555766612291336 0.006251564249396324
0.039140231907367706 -0.07473079860210419 -0.02041996829211712
-0.019653555005788803 -0.06454920768737793 0.35609713196754456
-0.08695565164089203 0.004864873364567757 0.016880199313163757
-0.06447809934616089 0.31356877088546753 0.3100856840610504
0.09321947395801544 -0.07913567870855331 0.054520681500434875
0.018287165090441704 -0.07030697911977768 -0.05360455811023712
0.1271151602268219 -0.08218450844287872 0.18358610570430756
0.012074444442987442 -0.0699678510427475 0.03146372735500336
-0.08797421306371689 0.014435074292123318 -0.004453476518392563
0.021192507818341255 -0.06377377361059189 0.014399564824998379
-0.01748260296881199 -0.06731966882944107 0.06855010241270065
-0.07369819283485413 0.029903080314397812 0.006851178593933582
-0.025860728695988655 -0.0688813254237175 0.09169937670230865
-0.08819545060396194 0.023438040167093277 -0.006284104660153389
-0.07407350838184357 0.031813353300094604 0.025525067001581192
0.0037055425345897675 -0.05316614359617233 -0.04218153655529022
-0.08807425200939178 0.007863856852054596 0.004503481090068817
0.01754993572831154 -0.07156199961900711 -0.03918313607573509
0.26216524839401245 -0.026715487241744995 0.2933900058269501
-0.07294536381959915 0.023504331707954407 0.019418885931372643
0.03830692544579506 -0.0699063092470169 0.0153402891010046
-0.08830206096172333 0.02225983329117298 0.01739639602601528
-0.08714935183525085 0.02355128526687622 -0.015208452008664608
0.04352850466966629 -0.07240072637796402 -0.011771215125918388
-0.0988868921995163 0.1021946370601654 -0.029436934739351273
-0.09290020167827606 0.057798758149147034 0.0023502903059124947
-0.09104747325181961 -0.0029722247272729874 0.05304379016160965
-0.08422397822141647 0.019291691482067108 -0.007394145242869854
-0.08681237697601318 0.02413150854408741 0.016403576359152794
-0.08304264396429062 0.0046969130635261536 0.0893138200044632
0.04188542813062668 -0.07451245188713074 -0.015280588530004025
-0.0892898365855217 0.021466730162501335 0.009877484291791916
-0.09032880514860153 0.0006766794249415398 0.07142508774995804
-0.04266316816210747 -0.04507485032081604 0.15030525624752045
-0.08687188476324081 0.01833493821322918 0.03220398351550102
0.009574360214173794 -0.06776054203510284 0.09473259001970291
0.032441023737192154 -0.0771326869726181 -0.021452300250530243
0.09436514973640442 -0.07925362884998322 0.2010388970375061
-0.09507688134908676 0.11651597917079926 0.2817966341972351
-0.08837635815143585 0.015712616965174675 0.044133905321359634
-0.0891360491514206 0.017312616109848022 0.013074655085802078
-0.039262134581804276 -0.040062300860881805 0.1251760721206665
-0.08949290961027145 -0.005384822841733694 0.03498697280883789
-0.06937557458877563 0.02470734342932701 0.11233769357204437
0.005938290618360043 -0.06825229525566101 -0.00956942979246378
0.048749666661024094 -0.06683128327131271 -0.016122322529554367
-0.0122009152546525 -0.06826988607645035 -0.004354397766292095
0.061294637620449066 -0.06856037676334381 0.05641881749033928
-0.08447960019111633 0.030250832438468933 0.013005781918764114
-0.08198416233062744 0.014482121914625168 -0.008125855587422848
-0.09085562825202942 0.03651171922683716 0.028882291167974472
0.022705618292093277 -0.0630248561501503 0.05041239783167839
-0.08696122467517853 0.05929847061634064 0.029110688716173172
0.014432212337851524 -0.05925775691866875 -0.12088729441165924
-0.09043527394533157 0.0115127582103014 -0.019425611943006516
-0.03479188680648804 -0.049472957849502563 0.07682623714208603
-0.03522005304694176 -0.020640285685658455 -0.06735861301422119
0.09645906090736389 -0.06278831511735916 -0.003289023181423545
-0.019089587032794952 -0.04100736230611801 -0.030439820140600204
-0.09773936867713928 0.042513422667980194 0.16042374074459076
-0.0955314189195633 0.18439827859401703 0.18320129811763763
0.017586464062333107 -0.08195414394140244 0.1624055653810501
-0.02680315636098385 -0.06443186849355698 -0.05267254263162613
0.00263045821338892 -0.04319066181778908 -0.10614542663097382
0.033141542226076126 -0.07870454341173172 -0.016043420881032944
-0.01003236509859562 -0.0637672170996666 -0.0590597465634346
0.01883610524237156 -0.07070648670196533 0.07688779383897781
-0.08440543711185455 0.018617136403918266 0.061486270278692245
-0.08304893970489502 0.013868696987628937 -0.0026208218187093735
-0.08530547469854355 0.0148380221799016 -0.008944599889218807
0.29960915446281433 -0.06704571098089218 0.13568925857543945
0.10146330296993256 -0.06908953189849854 0.025521548464894295
-0.07927216589450836 0.02014094963669777 -0.012005303055047989
0.06166635826230049 -0.06670621037483215 0.0619114488363266
-0.01729610748589039 -0.0812663808465004 -0.031331464648246765
-0.10114819556474686 0.06246699392795563 0.07205818593502045
-0.08486375957727432 0.027871353551745415 -0.058929942548274994
0.024109922349452972 -0.05832803249359131 -0.05335810035467148
0.012597482651472092 -0.05878812074661255 -0.04630719870328903
0.023951327428221703 -0.08353523910045624 0.10138159990310669
0.10462221503257751 -0.09332069754600525 0.32162952423095703
0.1716720312833786 -0.07509315013885498 0.15661750733852386
0.058619022369384766 -0.0887356624007225 0.3023907542228699
-0.08048152923583984 0.018928319215774536 -0.028775673359632492
-0.09089511632919312 -0.004620576277375221 0.17735327780246735
0.09164029359817505 -0.08801306039094925 0.17638234794139862
0.3283557891845703 0.00013983622193336487 0.40985092520713806
0.050609856843948364 -0.06904739141464233 -0.021300114691257477
-0.02357170730829239 -0.018757617101073265 -0.1941177248954773
0.04962296038866043 -0.06819991022348404 -0.006637755781412125
-0.000706358696334064 -0.08699923008680344 0.17706824839115143
-0.021239666268229485 -0.04839888960123062 -0.04975578188896179
-0.09362087398767471 0.006283877417445183 -0.0005284731741994619
0.1760188341140747 -0.07121717184782028 0.022768061608076096
0.023350533097982407 -0.07151303440332413 0.07115177065134048
-0.09112142026424408 0.24196010828018188 0.33263906836509705
-0.025180310010910034 -0.06440337747335434 -0.0035707138013094664
-0.03098096325993538 -0.06154302880167961 0.2482137531042099
-0.002508308971300721 -0.032174479216337204 -0.012303100898861885
-0.08925742655992508 0.030381254851818085 -0.013638606294989586
0.038931362330913544 -0.06404390186071396 -0.02506525255739689
-0.08245520293712616 0.056086525321006775 0.19169694185256958
0.050720859318971634 -0.08104019612073898 -0.02727014198899269
0.013749724254012108 -0.06769377738237381 0.0007491614669561386
-0.06385356932878494 -0.016639817506074905 -0.12175632268190384
0.050660017877817154 -0.08079536259174347 -0.014192542061209679
-0.0735870972275734 0.1761161983013153 0.012060204520821571
0.06421242654323578 -0.06430986523628235 0.027995571494102478
0.020747696980834007 -0.0756302997469902 -0.013401123695075512
-0.082993283867836 0.01664334535598755 -0.01736527308821678
0.0013107301201671362 -0.06884993612766266 0.03839965909719467
0.0165270809084177 -0.06445366144180298 0.002827855758368969
-0.08400066196918488 0.03301937133073807 0.043241336941719055
0.0021304748952388763 -0.06108935922384262 -0.010765218175947666
-0.06850123405456543 0.01365522388368845 -0.17423896491527557
0.07745310664176941 -0.07270072400569916 -0.1060839593410492
-0.03244893252849579 -0.07461477816104889 -0.031628694385290146
0.05995955318212509 -0.07456697523593903 -0.1672346442937851
0.015135266818106174 -0.06243021786212921 0.007203709799796343
0.04329896718263626 -0.06037628650665283 -0.003149712458252907
0.026687003672122955 -0.0706639438867569 0.01765776053071022
-0.10183511674404144 0.058930106461048126 0.1705823391675949
-0.031605497002601624 -0.055753834545612335 0.055030591785907745
0.2662915289402008 -0.05781149864196777 0.031828172504901886
-0.10273110866546631 0.25244206190109253 0.3527696132659912
-0.08983262628316879 0.09508179128170013 0.004078336991369724
-0.05260932072997093 -0.03176843374967575 0.09664031118154526
-0.007251458242535591 -0.06277764588594437 -0.015510226599872112
0.163798525929451 -0.08880025148391724 0.33073917031288147
-0.012791975401341915 -0.07989126443862915 0.24698856472969055
-0.039845969527959824 -0.025822758674621582 -0.0983118787407875
-0.1055004894733429 0.15189076960086823 -0.15669846534729004
0.051217228174209595 -0.06772350519895554 -0.011715367436408997
-0.080563984811306 0.016075199469923973 0.11939189583063126
0.02030831389129162 -0.06998388469219208 0.0199054554104805
-0.06447528302669525 -0.047203514724969864 -0.025399520993232727
-0.019393321126699448 -0.04969309642910957 0.0410170778632164
0.029849573969841003 -0.07305800169706345 -0.01206326112151146
-0.07378602027893066 0.010756613686680794 -0.0084556695073843
0.040985412895679474 -0.07247719168663025 -0.010202938690781593
-0.07775846868753433 0.045568179339170456 0.052349627017974854
-0.013042623177170753 -0.0451354943215847 -0.09232025593519211
-0.08850135654211044 0.005895206704735756 0.1872084140777588
0.09184527397155762 -0.0801154151558876 0.21633054316043854
-0.08062155544757843 0.026590807363390923 0.015423937700688839
0.13297139108181 -0.09580208361148834 0.4442954659461975
0.06856853514909744 -0.07840292900800705 0.019881825894117355
0.059035591781139374 -0.07449669390916824 0.031451690942049026
-0.08273569494485855 0.021795043721795082 0.21489635109901428
-0.00235595740377903 -0.07799476385116577 0.03745364397764206
-0.0007460331544280052 -0.06039928272366524 -0.0015401956625282764
0.09011534601449966 -0.07375268638134003 -0.001844853162765503
0.02110300399363041 -0.06653332710266113 0.00595206581056118
0.003801608458161354 -0.06696087121963501 -0.053121667355298996
-0.10284753888845444 0.054150938987731934 -0.038370680063962936
-0.08849120885133743 0.028636658564209938 0.06322187185287476
-0.0973098874092102 0.07999147474765778 0.28758808970451355
-0.07903295755386353 -0.0104432487860322 0.10035393387079239
-0.08566991239786148 0.015246517024934292 -0.0005233632400631905
0.004010261967778206 -0.059757620096206665 0.001003175973892212
-0.08271180838346481 0.025320187211036682 0.044026028364896774
-0.09975015372037888 -0.07483374327421188 0.3921390771865845
-0.09101040661334991 0.07513567060232162 0.09036093950271606
-0.07288172096014023 0.2532828748226166 -0.03913244605064392
-0.11056224256753922 0.14472021162509918 0.020227355882525444
0.015050137415528297 -0.07292330265045166 0.003857240080833435
-0.07566270232200623 -0.002518618479371071 -0.0011630179360508919
0.03294568508863449 -0.07808093726634979 -0.006491625681519508
-0.08884420990943909 0.03921851888298988 0.025682605803012848
-0.08159007877111435 0.26022911071777344 0.19334037601947784
-0.0770675390958786 0.03860308229923248 -0.06645304709672928
0.031270455569028854 -0.06437109410762787 0.07949119806289673
0.053115032613277435 -0.07086833566427231 -0.012148432433605194
-0.08813217282295227 0.02878769487142563 0.07736416161060333
-0.08833689987659454 0.04053721949458122 0.25396859645843506
0.04282389581203461 -0.07311564683914185 -0.01634124107658863
0.01630621775984764 -0.0640810951590538 0.0193210169672966
-0.08558054268360138 0.28501588106155396 0.2972536087036133
-0.08339144289493561 0.01914398744702339 -0.015530409291386604
-0.06226862967014313 0.028594613075256348 -0.0012797596864402294
-0.0936286523938179 0.06647737324237823 0.2180643379688263
-0.07768756151199341 0.025377998128533363 0.039777062833309174
-0.08736816048622131 0.005459464155137539 -0.0018348898738622665
0.035159528255462646 -0.08396448940038681 0.16722120344638824
0.017057711258530617 -0.0809757262468338 -0.002714952453970909
-0.10225331783294678 0.21759003400802612 0.4020674228668213
0.2189667969942093 -0.07027914375066757 -0.11852514743804932
0.052677854895591736 -0.08069503307342529 -0.02314574271440506
-0.011275102384388447 -0.06127510592341423 -0.0336231030523777
0.021545294672250748 -0.0626877099275589 0.026912495493888855
-0.07680623233318329 0.03020266816020012 -0.04718006029725075
-0.047011204063892365 -0.04947827011346817 0.2109071910381317
0.07631446421146393 -0.07646331191062927 -6.797164678573608e-05
0.020509764552116394 -0.06462590396404266 0.012211967259645462
-0.08370093256235123 0.08682044595479965 0.11183057725429535
-0.007329071871936321 -0.06070243567228317 -0.013814704492688179
0.03845850005745888 -0.07795386016368866 -0.03637680783867836
-0.033547185361385345 -0.06466406583786011 0.19973045587539673
0.10339914262294769 -0.0823819488286972 0.06703928858041763
-0.09074018895626068 0.28378230333328247 0.24658013880252838
-0.08731825649738312 0.01447964832186699 -0.007750372402369976
0.050043635070323944 -0.07256431877613068 -0.09959933161735535
-0.09348022937774658 0.051999833434820175 -0.014581779018044472
-0.01507634948939085 -0.0619187131524086 0.06758234649896622
0.009295125491917133 -0.06360919028520584 -0.00566461868584156
-0.016079850494861603 -0.07255614548921585 -0.02888435311615467
-0.11017470061779022 0.1495167315006256 0.040624093264341354
-0.09802713990211487 0.08508113026618958 -0.09772800654172897
-0.1072666198015213 0.12021220475435257 0.23636312782764435
-0.07607214897871017 0.0023787841200828552 0.09211850166320801
-0.08672556281089783 0.20973293483257294 0.12535250186920166
-0.08627949655056 -0.08140069991350174 0.14752314984798431
-0.03085453249514103 -0.056319709867239 0.02624914050102234
-0.09981022775173187 0.04662805795669556 0.03510962799191475
0.007213350385427475 -0.0628049373626709 0.04638560861349106
0.06132585555315018 -0.07347027957439423 0.06094285473227501
0.0656387060880661 -0.07077306509017944 0.009498445317149162
-0.07475966215133667 0.006918907165527344 -0.03865587338805199
0.11891022324562073 -0.07671570777893066 0.12408080697059631
0.23740319907665253 -0.06773015856742859 0.012411913834512234
0.02827746421098709 -0.07432735711336136 0.06531286239624023
-0.08384954929351807 0.02527204528450966 0.018376078456640244
-0.016137339174747467 -0.06918385624885559 0.11327439546585083
-0.06769424676895142 -0.04274708032608032 -0.005327876657247543
-0.091404490172863 0.006346695590764284 0.08571502566337585
0.012340044602751732 -0.07612332701683044 0.07383129000663757
-0.07835116237401962 0.0250645000487566 -0.06430238485336304
0.012419581413269043 -0.06268304586410522 0.04872322827577591
-0.06365363299846649 -0.019341526553034782 0.014582779258489609
0.2529662549495697 -0.08619501441717148 0.22189044952392578
-0.09693554043769836 0.09130741655826569 0.41596728563308716
-0.05846080556511879 0.009572395123541355 -0.13211768865585327
0.030335398390889168 -0.06695275008678436 0.01489812508225441
0.02514580450952053 -0.05833377316594124 -0.014288508333265781
-0.006249633617699146 -0.029599150642752647 -0.2625853419303894
0.007714882493019104 -0.06600871682167053 0.0037115318700671196
0.10670393705368042 -0.07310652732849121 0.05468488484621048
0.023712897673249245 -0.07875533401966095 -0.03225499764084816
0.33230647444725037 0.05527353286743164 -0.02915119379758835
0.036406487226486206 -0.06967411935329437 -0.008281591348350048
-0.06856924295425415 0.019229291006922722 -0.04731112718582153
0.02064785733819008 -0.07243460416793823 0.0021390002220869064
0.030230708420276642 -0.06270363926887512 -0.022020338103175163
0.1454271376132965 -0.06830054521560669 0.07868589460849762
0.005143088288605213 -0.06378273665904999 -0.014932500198483467
-0.09232593327760696 0.029637575149536133 0.28583481907844543
-0.07478733360767365 0.013191676698625088 0.07803677767515182
-0.01643357425928116 -0.04345904663205147 -0.05371454358100891
0.04985666275024414 -0.07537978887557983 -0.036202456802129745
0.05225324630737305 -0.06820588558912277 -0.004697426222264767
0.11006432771682739 -0.08200141787528992 -0.021998921409249306
-0.07276567816734314 0.012544112280011177 0.015827912837266922
0.04060793295502663 -0.0713784247636795 0.08112218976020813
-0.08946545422077179 0.010732408612966537 -0.017312001436948776
-0.08742582052946091 0.03249325603246689 0.19939234852790833
0.009957294911146164 -0.05679016187787056 -0.0017408374696969986
0.030759135261178017 -0.0751672238111496 0.1881360411643982
-0.08032073080539703 -0.06495381146669388 -0.04579099640250206
0.05296052247285843 -0.0821586549282074 0.18296372890472412
-0.09294719249010086 0.09635108709335327 0.36797934770584106
0.020976155996322632 -0.06539851427078247 0.011790330521762371
-0.08787015080451965 -0.0014403469394892454 0.0821915864944458
0.07207093387842178 -0.0685480535030365 0.12538766860961914
-0.004933865740895271 -0.060345277190208435 0.038139451295137405
-0.08055265247821808 -0.08274556696414948 0.3607221245765686
-0.07078318297863007 0.021689482033252716 -0.007765874266624451
-0.017437124624848366 -0.054371315985918045 0.01248990185558796
0.04028751701116562 -0.06479781121015549 -0.01155578438192606
-0.10596194863319397 0.11646898090839386 0.3845331370830536
-0.007097321562469006 -0.06825926154851913 -0.0026183142326772213
-0.08023598790168762 0.030460622161626816 -0.020866522565484047
-0.08615686744451523 0.013104978948831558 0.01339804194867611
-0.10321250557899475 0.08785323053598404 0.07635589689016342
0.025028174743056297 -0.06871424615383148 -0.011157936416566372
0.008715203031897545 -0.07351013273000717 0.19988705217838287
0.3060327172279358 0.042521536350250244 0.27174603939056396
-0.07235826551914215 0.13859549164772034 0.09860143810510635
-0.08303025364875793 0.035552144050598145 0.02060941979289055
-0.0016170479357242584 -0.06453560292720795 0.10090389847755432
0.03651677072048187 -0.09180451184511185 0.3210116922855377
-0.03717103600502014 -0.05900399014353752 0.08291331678628922
0.0387333519756794 -0.0765998438000679 -0.008468499407172203
0.01142185553908348 -0.07602334022521973 0.1511140763759613
0.010737305507063866 -0.06594578921794891 0.04316892474889755
0.22175784409046173 -0.06921100616455078 0.06655609607696533
0.006231086328625679 -0.09686687588691711 0.4128716289997101
-0.086610347032547 0.017992231994867325 -0.008825840428471565
0.04902341961860657 -0.0633135512471199 -0.012742536142468452
-0.0836721733212471 -0.0017391908913850784 0.07995244860649109
-0.09541703760623932 0.07235335558652878 0.18907512724399567
-0.00909122359007597 -0.06846195459365845 -0.05303541570901871
0.17809751629829407 -0.07012712955474854 0.204266756772995
0.026830974966287613 -0.07105334103107452 -0.1699557602405548
0.2919524013996124 -0.0700497180223465 0.06558090448379517
0.027697987854480743 -0.07141482830047607 -0.03199773281812668
0.005544394254684448 -0.07073912024497986 0.05339444801211357
-0.08210837841033936 0.059360321611166 -0.1289026141166687
-0.08777854591608047 0.04241909086704254 0.027651410549879074
-0.0004077106714248657 -0.07531473785638809 0.2697625756263733
0.02145462855696678 -0.06469155102968216 -0.02149946801364422
0.14974020421504974 -0.09033031761646271 -0.15183523297309875
-0.01650722697377205 -0.0666087418794632 0.06873289495706558
0.053471460938453674 -0.05587402358651161 -0.09055858850479126
0.04918345436453819 -0.08009473234415054 -0.012571759521961212
0.013437848538160324 -0.06914230436086655 0.05155319720506668
0.16393566131591797 -0.0647086426615715 0.04146459698677063
-0.002874902915209532 -0.06857503205537796 0.004834471270442009
-0.07525824010372162 0.011350185610353947 0.08270132541656494
-0.07876880466938019 0.008471516892313957 0.07558418065309525
-0.08481444418430328 0.02107897214591503 -0.0078039467334747314
0.3379407525062561 0.036985836923122406 -0.03520168736577034
-0.08686475455760956 0.018685821443796158 -0.056512463837862015
0.0012342948466539383 -0.06378248333930969 0.11863480508327484
-0.003135902341455221 -0.0838187038898468 0.22556933760643005
-0.09214087575674057 0.1629030853509903 0.40914326906204224
-0.08171774446964264 0.02623710408806801 0.0013961422955617309
0.0649237260222435 -0.07696430385112762 -0.0024941330775618553
-0.05286119133234024 -0.029502060264348984 0.27677518129348755
-0.07342854142189026 0.015200051479041576 -0.02241707406938076
0.04936499148607254 -0.07468204200267792 -0.010541984811425209
-0.04090303182601929 -0.06741023063659668 0.04977605119347572
-0.08385482430458069 0.006921474356204271 0.05146138742566109
-0.08161114901304245 0.09559011459350586 0.10364591330289841
0.029318951070308685 -0.07165464758872986 -0.04185192659497261
-0.07551988959312439 0.01342368870973587 -0.02372167631983757
0.05575667321681976 -0.07004939764738083 0.04923023283481598
-0.0872010886669159 0.03336276486515999 0.1348997801542282
-0.06005378067493439 -0.028000954538583755 0.3661605417728424
-0.008828554302453995 -0.0666118785738945 -0.05937372148036957
-0.08676450699567795 0.012871876358985901 0.12789860367774963
0.014862338081002235 -0.07402138411998749 0.013732989318668842
-0.0858299508690834 0.034088123589754105 0.13902661204338074
-0.06838192045688629 0.032470181584358215 -0.0322410985827446
0.012961342930793762 -0.07308498024940491 0.07583887875080109
0.04518808051943779 -0.0704120546579361 -0.033472511917352676
0.15696701407432556 -0.08146724104881287 0.2866189181804657
0.001319945091381669 -0.07081081718206406 0.061304569244384766
0.14358088374137878 -0.07136985659599304 0.007215466350317001
0.02815231867134571 -0.06306687742471695 0.011395146138966084
-0.09821685403585434 0.03488628938794136 0.340310275554657
-0.06709060072898865 0.01400425098836422 -0.0379616804420948
-0.04370153322815895 -0.054366111755371094 0.13654693961143494
0.1573164314031601 -0.066912442445755 0.019502129405736923
0.028886262327432632 -0.06833404302597046 0.01180879957973957
-0.09153984487056732 -0.009608520194888115 -0.002577755134552717
-0.003120286390185356 -0.06597580015659332 0.04054553806781769
-0.08576691895723343 0.016983119770884514 -0.007209532894194126
-0.07470912486314774 0.018600137904286385 -0.013495376333594322
-0.08385651558637619 0.021491194143891335 -0.0065442537888884544
0.2204006165266037 -0.06841713935136795 0.2770540118217468
-0.04752538725733757 0.3560389280319214 0.4006575345993042
0.00135998975019902 -0.06688510626554489 0.003987656906247139
-0.07782099395990372 0.04349398985505104 0.0101560577750206
0.027168922126293182 -0.057269737124443054 0.024574298411607742
-0.08588305860757828 0.02005491405725479 -0.003412332385778427
-0.10501984506845474 0.04326823353767395 0.26359501481056213
-0.08821877837181091 0.020050611346960068 0.011717444285750389
0.1905806064605713 -0.09599948674440384 0.4228009283542633
-0.09631598740816116 0.0637921541929245 0.42911145091056824
-0.07581678032875061 0.14667797088623047 -0.00015998026356101036
-0.08967310935258865 0.00887162983417511 0.08697404712438583
0.055449552834033966 -0.0887766182422638 0.2150590866804123
0.043555162847042084 -0.06576091051101685 -0.0025251414626836777
-0.09402580559253693 0.008714692667126656 -0.008838914334774017
-0.08575986325740814 0.0072379764169454575 -0.010965511202812195
-0.0960177406668663 0.037278786301612854 0.11237570643424988
-0.10976577550172806 0.014169914647936821 0.37813931703567505
0.07602792233228683 -0.0722690299153328 0.012558141723275185
-0.024541189894080162 -0.061557479202747345 -0.003308753250166774
-0.07964535802602768 -0.004476756323128939 0.07381588965654373
-0.078301802277565 0.0105062797665596 -0.011395392939448357
0.21890473365783691 -0.059512145817279816 0.0032028015702962875
-0.08780697733163834 0.01340542547404766 -0.009100966155529022
-0.08888527005910873 0.021206306293606758 -0.0377374067902565
0.07426198571920395 -0.09588643908500671 0.4345402419567108
0.08575685322284698 -0.05701787769794464 -0.19093085825443268
-0.10673712193965912 0.1279205083847046 0.13695910573005676
-0.08836972713470459 0.02852795086801052 0.06319228559732437
-0.06670922040939331 -0.016739647835493088 -0.10613597929477692
-0.027735156938433647 -0.03590705245733261 -0.1199607327580452
0.000279746949672699 -0.07499375194311142 0.0546785369515419
-0.08357111364603043 -0.02095266804099083 0.09169507026672363
-0.084104523062706 0.024204213172197342 0.06694306433200836
-0.1032319962978363 0.1886044293642044 -0.06370391696691513
-0.07146900147199631 0.019855141639709473 0.10756333917379379
-0.09250291436910629 0.01297830231487751 0.020118921995162964
-0.05299931764602661 -0.0711759701371193 0.07574674487113953
-0.08826597034931183 0.024122048169374466 -0.0004610060714185238
-0.012113489210605621 -0.07038535177707672 0.044409167021512985
0.00429764436557889 -0.06341338902711868 -0.011237084865570068
0.004173243883997202 -0.0884409099817276 0.19281190633773804
-0.09869951009750366 0.00033890455961227417 0.3606705665588379
0.007930860854685307 -0.07169746607542038 0.017562253400683403
-0.09858694672584534 0.13980691134929657 0.17026233673095703
-0.09800595045089722 0.029654620215296745 -0.027756888419389725
-0.08792510628700256 0.20568741858005524 0.003516601864248514
0.1833144724369049 -0.06823284178972244 0.08045361936092377
-0.08721104264259338 0.00358409620821476 -2.2042542695999146e-05
-0.09247304499149323 0.27062901854515076 -3.1206756830215454e-05
-0.10846826434135437 0.18076451122760773 0.3122398555278778
0.19597232341766357 -0.06942777335643768 0.22983099520206451
-0.09260749816894531 0.08131048828363419 0.16136381030082703
-0.02446288801729679 -0.051507510244846344 -0.03566597402095795
0.0015840865671634674 -0.06591832637786865 -0.0011047252919524908
0.017957322299480438 -0.07335470616817474 -0.0039038266986608505
-0.09219571202993393 0.0012494474649429321 -0.02318505570292473
-0.0730409175157547 0.01094900257885456 0.1294674575328827
-0.10328890383243561 0.1804172396659851 0.23805098235607147
0.012101694941520691 -0.0679580569267273 0.020093657076358795
-0.08666317909955978 0.0006474871188402176 -0.011244382709264755
0.013184089213609695 -0.06745228171348572 0.027843303978443146
-0.03743021562695503 -0.056352466344833374 0.10357706248760223
-0.09239077568054199 0.01922697201371193 -0.011774878948926926
-0.019273851066827774 -0.05004385858774185 -0.03185790032148361
-0.0966193675994873 0.02206764556467533 -0.011881639249622822
0.031674571335315704 -0.06895902007818222 0.00750891026109457
0.1052493005990982 -0.0698632076382637 0.05143328011035919
-0.07940877974033356 0.10319545865058899 0.11447273939847946
-0.08735166490077972 0.013320840895175934 0.034517236053943634
-0.08215506374835968 0.017699066549539566 -0.00176957156509161
-0.08402708172798157 0.06391499191522598 0.18165439367294312
0.0073112016543745995 -0.06505301594734192 0.00674030464142561
-0.018740283325314522 -0.051030032336711884 -0.07442761212587357
0.13092924654483795 -0.06328874081373215 -0.01019216701388359
0.32634133100509644 0.0164707712829113 0.067807137966156
-0.0648476779460907 0.030696745961904526 -0.050317928194999695
-0.012161724269390106 -0.06374917179346085 -0.039572060108184814
0.22177378833293915 -0.059523455798625946 0.09417499601840973
-0.06433218717575073 -0.011394950561225414 0.02777574397623539
-0.012479463592171669 -0.07268249988555908 -0.03125138580799103
-0.013738878071308136 -0.06961587071418762 -0.04199429601430893
0.11339521408081055 -0.07602216303348541 -0.05587386339902878
-0.08724407851696014 0.01030945684760809 -0.01042168214917183
-0.08754435181617737 0.02275676280260086 0.06986381113529205
0.3105187714099884 -0.07581502944231033 0.36321717500686646
-0.09702728688716888 0.04383768141269684 0.051066428422927856
-0.10463955253362656 0.1672617644071579 0.08752790838479996
0.013953670859336853 -0.07075522840023041 -0.020820584148168564
-0.06773918867111206 0.01267237588763237 -0.025496963411569595
-0.08475133031606674 0.01718847081065178 -0.007290948182344437
0.02731974795460701 -0.08665574342012405 0.2698809802532196
0.07034116983413696 -0.07709330320358276 0.2114684283733368
0.04678867757320404 -0.06539514660835266 -0.012926582247018814
0.08704686164855957 -0.07541123032569885 0.13688519597053528
-0.1087028980255127 0.09419228881597519 0.12934795022010803
-0.05003967136144638 0.010757995769381523 -0.23594637215137482
0.042580269277095795 -0.07405099272727966 -0.01482388935983181
-0.02835109271109104 -0.028818685561418533 -0.1369892805814743
-0.0783841535449028 0.03262592852115631 0.01775534451007843
0.10891876369714737 -0.09014634788036346 0.04064720869064331
-0.07623885571956635 0.1167660802602768 -0.01385262981057167
-0.04040324315428734 -0.03586305305361748 -0.04719904810190201
-0.08143750578165054 0.022307053208351135 -0.020562944933772087
0.2138844132423401 -0.07811964303255081 0.19452539086341858
0.0229408610612154 -0.059250637888908386 0.03311678394675255
-0.09953516721725464 0.25804686546325684 0.3068996071815491
0.0014057867228984833 -0.06859157979488373 0.003216519020497799
-0.09341631829738617 -0.04748086631298065 0.03635091334581375
0.023874742910265923 -0.06350952386856079 0.004852285608649254
-0.09143674373626709 0.014497535303235054 0.01716628298163414
-0.038846924901008606 -0.036769092082977295 -0.0716770738363266
0.024944281205534935 -0.06770259141921997 0.027045028284192085
0.25049105286598206 -0.061151616275310516 0.3350299596786499
-0.0931779220700264 0.053853556513786316 0.13438449800014496
-0.10522577166557312 0.11675500124692917 -0.2204717993736267
-0.09261945635080338 0.17266175150871277 -0.10798925906419754
0.019259143620729446 -0.06792937219142914 0.028714237734675407
-0.08023187518119812 0.14740069210529327 0.20197615027427673
0.02892144024372101 -0.08529636263847351 0.2533211410045624
-0.0014504720456898212 -0.06556415557861328 -0.007613632827997208
-0.019832467660307884 -0.0714692771434784 0.07242041081190109
-0.08032764494419098 0.008393377996981144 0.10272444039583206
-0.10000820457935333 -0.05210638418793678 0.22798432409763336
-0.08945105969905853 0.011494346894323826 0.07790493965148926
-0.10550058633089066 0.1796036958694458 -0.16154815256595612
-0.07217426598072052 0.005687141790986061 0.07839751988649368
-0.0862874761223793 0.015514581464231014 -0.0056330375373363495
-0.07732544839382172 0.2891640365123749 0.09814174473285675
-0.005396523978561163 -0.048889752477407455 -0.050954803824424744
-0.06547389924526215 -0.005695159547030926 -0.04771345108747482
-0.044204987585544586 -0.08491164445877075 0.20593608915805817
-0.08753205090761185 -0.00637996569275856 0.11740271002054214
-0.111262246966362 0.19035395979881287 0.3405584692955017
-0.09043611586093903 0.018472034484148026 0.22772805392742157
0.008567051030695438 -0.06971792876720428 0.05474061518907547
0.07437649369239807 -0.06133994087576866 0.08763178437948227
0.051034193485975266 -0.061078399419784546 -0.029740087687969208
-0.0975174829363823 0.2307991087436676 0.11346520483493805
-0.008826227858662605 -0.0702735036611557 0.07587984204292297
-0.07642064243555069 -0.0799429714679718 0.42524319887161255
0.045648857951164246 -0.07323157042264938 -0.011555696837604046
0.11195363104343414 -0.08451031893491745 0.2165648192167282
-0.045456454157829285 -0.0532417893409729 0.05492783337831497
0.024068405851721764 -0.07228876650333405 0.035997651517391205
0.026269078254699707 -0.06603465974330902 0.012813248671591282
-0.08529824763536453 0.04501093178987503 -0.06741608679294586
-0.06675174832344055 -0.07120844721794128 0.09834633022546768
0.13526053726673126 -0.07273100316524506 0.10292324423789978
-0.07730607688426971 0.023236680775880814 -0.023235391825437546
0.015206761658191681 -0.0713493824005127 0.0762077122926712
0.08514067530632019 -0.08067469298839569 -0.04649629443883896
0.007460590451955795 -0.06265328824520111 -0.02165057323873043
-0.0896930918097496 0.01598743163049221 -0.006686091423034668
0.053853750228881836 -0.06713780015707016 -0.016034148633480072
-0.07417980581521988 -0.009432057850062847 0.07272221148014069
0.09118819236755371 -0.07200039178133011 0.050190843641757965
0.021904809400439262 -0.06200606748461723 0.02646601013839245
-0.09488547593355179 0.03863834589719772 0.2122669667005539
-0.08226539939641953 0.007688520476222038 0.05796569585800171
-0.08914397656917572 0.011797837913036346 0.09614603221416473
0.08841721713542938 -0.06806435436010361 0.11754581332206726
0.0522327721118927 -0.08067849278450012 -0.03741399571299553
-0.09436817467212677 -0.004152103327214718 0.38995370268821716
-0.08423642814159393 0.015267586335539818 0.016161859035491943
-0.0900644063949585 0.04195719212293625 0.260358065366745
0.12955127656459808 -0.07191938161849976 0.01796501874923706
0.18509626388549805 -0.06455186009407043 0.011461921967566013
-0.0881047248840332 0.0012528728693723679 0.04910043254494667
-0.03360816836357117 -0.04941330850124359 -0.015018608421087265
-0.0933629721403122 0.2271929383277893 0.24171939492225647
0.019058894366025925 -0.06707343459129333 0.09218472987413406
0.09202457219362259 -0.07288313657045364 0.093135304749012
-0.004702704027295113 -0.08973681926727295 0.3460887670516968
-0.08809145539999008 0.03726426139473915 0.02537599951028824
0.033402275294065475 -0.07248742878437042 0.02097087912261486
-0.08309201151132584 0.05916685238480568 0.017139503732323647
0.05702655389904976 -0.0804423913359642 0.05657479912042618
0.03069189377129078 -0.07267430424690247 0.029795389622449875
0.019644254818558693 -0.08222321420907974 -0.009651859290897846
0.011700421571731567 -0.07042235881090164 0.04289728403091431
-0.08870638161897659 0.2061382234096527 0.06807994842529297
-0.04620380327105522 -0.06614449620246887 0.16918067634105682
0.033234767615795135 -0.06699974834918976 -0.013618405908346176
-0.01803944818675518 -0.07303961366415024 0.00527975894510746
-0.01806296780705452 -0.05706031620502472 -0.0604105219244957
-0.08624198287725449 0.013581587001681328 -0.005806155502796173
-0.09010089933872223 0.02101687155663967 0.24802668392658234
-0.08531703054904938 0.0075637344270944595 -0.010312994010746479
-0.08580810576677322 0.035557880997657776 0.11403937637805939
0.019565287977457047 -0.07263649255037308 -0.026246637105941772
0.07124044001102448 -0.06431382894515991 -0.010378055274486542
0.1374020278453827 -0.07813230156898499 0.13448567688465118
0.16376517713069916 -0.08205188065767288 0.14404141902923584
-0.009893737733364105 -0.07226449251174927 0.02486729435622692
-0.08486476540565491 0.017620379105210304 0.013498733751475811
-0.0014551840722560883 -0.05606427043676376 -0.053483620285987854
-0.055282823741436005 -0.07314158231019974 0.25847387313842773
0.019741009920835495 -0.06874352693557739 0.09334316849708557
0.032351329922676086 -0.06799975037574768 0.033981870859861374
-0.07736998796463013 0.019211377948522568 -0.10715693980455399
-0.017537420615553856 -0.07150040566921234 0.05927310138940811
-0.113033227622509 0.07860814779996872 0.3796175718307495
0.00943530909717083 -0.06938876211643219 0.017877664417028427
-0.027970239520072937 -0.03439708799123764 0.03444153815507889
-0.08922257274389267 0.0480390340089798 0.02473561465740204
-0.07977353781461716 -0.005344189703464508 0.08999363332986832
0.18952178955078125 -0.06151685118675232 -0.008416092954576015
0.000887066125869751 -0.06944116950035095 -0.013905946165323257
-0.03329872339963913 0.32825493812561035 -0.0192701518535614
-0.019509952515363693 -0.06689007580280304 -0.012183461338281631
0.008102302439510822 -0.06048916280269623 -0.01318434625864029
-0.022809214890003204 -0.0650663897395134 0.313894122838974
-0.08407378196716309 0.017923349514603615 0.015095232054591179
0.025961238890886307 -0.062448807060718536 0.03356517106294632
0.35283440351486206 -0.003759346902370453 0.28248336911201477
0.04706558585166931 -0.08880558609962463 -0.09647728502750397
-0.08295844495296478 0.01741689443588257 0.0841950997710228
0.044675733894109726 -0.06191370263695717 0.026646725833415985
-0.0015293695032596588 -0.09069976210594177 0.22636127471923828
-0.07082784920930862 0.13880178332328796 0.04712238162755966
0.12055560946464539 -0.09245678037405014 0.3561999201774597
0.014567115344107151 -0.0685458779335022 0.1340666562318802
-0.009644130244851112 -0.06478935480117798 -0.04081958532333374
0.06105557456612587 -0.07047330588102341 0.010639614425599575
-0.08257362246513367 0.022260500118136406 -0.005603468976914883
0.02757008746266365 -0.060665711760520935 0.02859535813331604
-0.086154043674469 0.016634367406368256 -0.007347414270043373
-0.06620653718709946 0.009042233228683472 -0.08710150420665741
-0.023163003847002983 -0.07350781559944153 -0.027070408686995506
0.1398935765028 -0.08738070726394653 0.27987998723983765
-0.07922325283288956 0.04661807790398598 0.10955820232629776
-0.08685068786144257 0.026985783129930496 0.017179841175675392
-0.09406565129756927 0.029948074370622635 0.03683415427803993
-0.08098036050796509 0.007203034590929747 0.1286010891199112
-0.026287123560905457 -0.05226738378405571 0.10059258341789246
-0.03343747556209564 -0.054232530295848846 0.009202718734741211
0.1373363882303238 -0.09430664777755737 0.3745861351490021
-0.0633021891117096 -0.08616583049297333 0.28220242261886597
-0.08327673375606537 -0.02182290144264698 0.12167234718799591
