-0.0880923941731453 0.014629555866122246 0.2818559408187866
0.017754774540662766 -0.06621239334344864 -0.02106567844748497
0.20917004346847534 -0.06320422887802124 -0.026454122737050056
-0.014929160475730896 -0.05606663227081299 0.026517100632190704
-0.07884097844362259 0.011968232691287994 -0.009337017312645912
0.039322759956121445 -0.0685536190867424 0.003926042467355728
-0.08400136232376099 -0.004021075554192066 0.0711585134267807
-0.0975060760974884 0.11273634433746338 0.14362412691116333
0.08333521336317062 -0.07086595892906189 -0.028576673939824104
-0.07913084328174591 -0.02049461007118225 0.024663664400577545
-0.09325293451547623 0.0773487314581871 0.09043588489294052
-0.09509839117527008 0.21951955556869507 0.019001740962266922
0.17808441817760468 -0.07552359998226166 0.187665194272995
-0.0856422558426857 0.0032957042567431927 -0.0066946810111403465
-0.03575010597705841 -0.05821075662970543 0.005074510350823402
-0.08565899729728699 -0.026926686987280846 0.3852088749408722
-0.08365929126739502 0.02485763654112816 0.21476969122886658
-0.07736267894506454 -0.01636112853884697 -0.010275032371282578
0.0965505987405777 -0.07201948016881943 -0.016201218590140343
0.007963222451508045 -0.06747999787330627 0.048475515097379684
0.02402595803141594 -0.05553710088133812 0.02496246062219143
-0.08783198148012161 0.045036282390356064 0.1739163100719452
0.037042297422885895 -0.06205590069293976 -0.006985793821513653
-0.0992506891489029 0.2684394419193268 0.3596826195716858
-0.005691193975508213 -0.0670037642121315 -0.004745256155729294
-0.08301633596420288 0.02092583477497101 0.05916622281074524
0.024627266451716423 -0.08151847869157791 0.18590719997882843
0.02186223678290844 -0.07237397879362106 -0.0022099651396274567
-0.07358254492282867 0.006922719068825245 -0.19295500218868256
-0.08297362923622131 -0.0031550386920571327 0.08524227142333984
-0.08011530339717865 -0.005786128807812929 -0.015884656459093094
0.038422733545303345 -0.07024731487035751 -0.13641414046287537
0.02476445771753788 -0.06903189420700073 -0.008189504034817219
-0.07484818994998932 -0.00590905174612999 0.08824774622917175
-0.08318527042865753 0.0038398397155106068 0.0898139476776123
-0.08359881490468979 0.013244446367025375 0.01637228950858116
0.0017966628074645996 -0.06712641566991806 0.03908666595816612
0.061700984835624695 -0.07471823692321777 0.0023473952896893024
-0.08334535360336304 0.01782356947660446 0.011303759180009365
0.014872400090098381 -0.07035987824201584 0.1800106018781662
-0.014064661227166653 -0.06193777918815613 -0.0273408405482769
-0.10037090629339218 0.232752725481987 0.14717307686805725
-0.09260792285203934 0.04894838482141495 0.0333716981112957
-0.07694686949253082 0.003480745479464531 0.0027326634153723717
-0.08301977813243866 -0.006553014740347862 0.07071462273597717
0.09326581656932831 -0.08408967405557632 0.19761410355567932
-0.08077305555343628 0.0038603274151682854 0.06198268011212349
-0.08738230168819427 0.03758643567562103 0.026915695518255234
-0.09154306352138519 0.014338484033942223 -0.01126091368496418
-0.0911475121974945 0.057268477976322174 0.1812463104724884
-0.041687436401844025 -0.0721680074930191 0.27577438950538635
-0.10042404383420944 0.06627931445837021 0.2867807447910309
-0.08698072284460068 0.017520220950245857 -0.020735956728458405
0.1269507110118866 -0.07420602440834045 -0.03461151942610741
0.08904297649860382 -0.07191050797700882 0.11502188444137573
0.3210148215293884 -0.05931404232978821 0.3006739020347595
-0.08521738648414612 -0.002672347007319331 0.07598366588354111
-0.11518227308988571 0.21323761343955994 -0.1101759672164917
0.041254252195358276 -0.06306634843349457 -0.1770932376384735
0.0028238538652658463 -0.06254160404205322 0.028090957552194595
-0.10136855393648148 0.1285867989063263 0.01990295946598053
0.001994634047150612 -0.0592849999666214 0.0796697810292244
0.06310000270605087 -0.07743266969919205 0.2875911295413971
-0.08860831707715988 0.006245751865208149 0.07324855029582977
-0.08985336124897003 0.03531475365161896 0.029742084443569183
-0.0865912064909935 -0.0020916201174259186 0.1248600110411644
0.054343897849321365 -0.07612764835357666 -0.017232835292816162
0.03888493776321411 -0.05837658792734146 -0.02836008556187153
-0.0808045044541359 0.0034462399780750275 -0.0023491252213716507
0.3276017904281616 -0.07716605067253113 0.3871529698371887
-0.09444250166416168 0.07046867907047272 0.23759464919567108
0.020106568932533264 -0.07120510935783386 -0.0048514725640416145
0.02760516293346882 -0.09701826423406601 0.4148405194282532
-0.08431930840015411 0.012659775093197823 0.14104647934436798
0.02388063818216324 -0.09499524533748627 0.442550390958786
0.07394906878471375 -0.06880448758602142 0.007689005695283413
-0.09860462695360184 0.17213696241378784 0.16696764528751373
-0.003382442519068718 -0.062166642397642136 -0.009416909888386726
-0.0806455910205841 0.0001249350607395172 -0.021258359774947166
-0.07620453089475632 0.011867272667586803 -0.008106467314064503
-0.02018742635846138 -0.05663575977087021 -0.00937042199075222
-0.015067987143993378 -0.05835869908332825 0.08299084007740021
-0.10413981974124908 0.06959250569343567 -0.15674874186515808
-0.06833422183990479 -0.08245475590229034 0.3119454085826874
-0.08120100200176239 0.011292047798633575 -0.007987319491803646
0.10533026605844498 -0.07901337742805481 0.015207203105092049
0.11859004944562912 -0.08690237998962402 0.3230877220630646
0.11458630859851837 -0.08206580579280853 0.24006284773349762
0.08644762635231018 -0.07221494615077972 0.008314784616231918
-0.08099215477705002 0.006198945455253124 -0.006826050113886595
0.04589378461241722 -0.07497499138116837 -0.009543905034661293
0.31136354804039 -0.004978949204087257 0.3741459250450134
0.03878961503505707 -0.06751174479722977 -0.005158544518053532
-0.07925044000148773 -0.004309394396841526 0.07102755457162857
-0.08258239179849625 0.01892121508717537 -0.01573345810174942
0.04025796055793762 -0.0738467127084732 0.031893327832221985
0.010724076069891453 -0.06622341275215149 0.03253061696887016
0.13702350854873657 -0.08564163744449615 0.03878970071673393
-0.090425044298172 0.06855493783950806 0.0373665876686573
0.05478290468454361 -0.07379219681024551 0.01345915999263525
-0.09772849828004837 0.03782783821225166 0.23447316884994507
0.28763243556022644 -0.07563122361898422 0.23869824409484863
0.019171947613358498 -0.06568317115306854 0.006841452792286873
0.01332911103963852 -0.07186533510684967 -0.005240818951278925
-0.09070097655057907 -0.006905436050146818 0.13546492159366608
0.03256956487894058 -0.0659167468547821 -0.015863703563809395
-0.013733875006437302 -0.05524764955043793 -0.04301095008850098
-0.08442257344722748 0.01465124636888504 -0.007945859804749489
-0.08140777796506882 0.014216592535376549 -0.0062932102009654045
-0.08657311648130417 -0.0027964692562818527 -0.014075640588998795
0.010434653609991074 -0.0655992403626442 0.027901753783226013
-0.08889909088611603 0.01898053102195263 0.015562226064503193
0.11630979180335999 -0.0718274787068367 0.010601907968521118
0.08699978142976761 -0.07483167201280594 -0.0009819604456424713
0.1392601728439331 -0.0771040990948677 0.03145195543766022
-0.07792207598686218 -0.007171892561018467 0.08938312530517578
0.1571137011051178 -0.07995162159204483 0.09134858101606369
-0.012099062092602253 -0.05803128331899643 -0.02541324682533741
-0.08253540843725204 -0.01011640578508377 0.08633509278297424
0.08173605799674988 -0.06705529242753983 -0.0017229821532964706
0.19255131483078003 -0.0704464539885521 0.02131776139140129
-0.039918575435876846 -0.02441590651869774 -0.1193324401974678
-0.10916032642126083 0.2055727243423462 0.2501349151134491
0.04081542417407036 -0.07224935293197632 0.10226066410541534
0.0036105960607528687 -0.06709859520196915 0.015184050425887108
0.008387808687984943 -0.06674772500991821 0.021169060841202736
-0.08512087911367416 0.012782562524080276 0.011854360811412334
0.14669758081436157 -0.06737697869539261 0.015671350061893463
-0.08954881131649017 0.03430771455168724 0.05919007584452629
0.06403040885925293 -0.08306529372930527 -0.10261467099189758
-0.01372989546507597 -0.05966412276029587 0.07874786853790283
0.011202388443052769 -0.07071340084075928 0.029571175575256348
-0.08442278951406479 0.01663416624069214 0.049835868179798126
-0.08653275668621063 0.012924501672387123 -0.004376484081149101
-0.08308615535497665 0.004581339657306671 -0.011812889948487282
0.12645865976810455 -0.076792873442173 0.01400378905236721
-0.08468781411647797 0.004995156079530716 -0.005741393193602562
-0.08577977120876312 0.033533237874507904 0.04978565126657486
-0.07814552634954453 0.003310022410005331 0.01331694982945919
-0.08146634697914124 0.0021255500614643097 0.08281049132347107
0.17059095203876495 -0.0769512951374054 -0.03197860345244408
0.02248380519449711 -0.07201604545116425 0.18555955588817596
-0.09630851447582245 0.05708236247301102 -0.0023125503212213516
-0.07974809408187866 0.006655799690634012 -0.020060118287801743
0.12780366837978363 -0.06910723447799683 -0.031816624104976654
0.01773669198155403 -0.06723012030124664 -0.0010137911885976791
-0.09354212135076523 0.030231034383177757 0.059745777398347855
-0.07582813501358032 -0.013419795781373978 -0.010024244897067547
0.06015477329492569 -0.09124284237623215 0.34383100271224976
0.0021117879077792168 -0.06296496093273163 0.030360551550984383
0.0024391785264015198 -0.06397108733654022 0.017242956906557083
-0.07300076633691788 -0.0016416441649198532 0.09020375460386276
-0.08513029664754868 0.011857917532324791 -0.0038155410438776016
0.02637716755270958 -0.0787908285856247 0.09561900049448013
-0.08518674224615097 0.017570221796631813 -0.012427610345184803
0.1591155081987381 -0.08413664996623993 -0.11568743735551834
-0.08913816511631012 0.035115428268909454 0.04782889038324356
0.027171459048986435 -0.06988447904586792 -0.009207217954099178
0.020422261208295822 -0.07332269847393036 0.08790110051631927
-0.016331974416971207 -0.06454914063215256 -0.013056900352239609
-0.0855969488620758 0.007687059696763754 -0.00802992470562458
0.01676603965461254 -0.06443861126899719 0.008538160473108292
0.02320031076669693 -0.06620918214321136 -0.007112073712050915
0.06630247831344604 -0.07567594945430756 0.05695619434118271
-0.044320475310087204 -0.0656578540802002 0.12911421060562134
-0.097805455327034 0.2969196140766144 -0.009199901483952999
-0.026011133566498756 -0.05118672549724579 -0.08433368802070618
-0.07466800510883331 -0.006598690524697304 0.1276690661907196
-0.1131715327501297 0.1901341825723648 -0.13717642426490784
0.024680746719241142 -0.07458808273077011 -0.01921522058546543
-0.11405456066131592 0.13672560453414917 -0.1214488074183464
-0.08840085566043854 0.01056738756597042 0.013963580131530762
-0.09146064519882202 0.019106784835457802 0.07977699488401413
0.3568284511566162 0.043970998376607895 0.4010530710220337
-0.005017010495066643 -0.09009652584791183 0.22934487462043762
0.0001031295396387577 -0.06139882281422615 0.06608756631612778
-0.08874063938856125 0.04897654056549072 -0.016741152852773666
-0.0806533694267273 0.014805648475885391 0.015816764906048775
-0.07633580267429352 0.016117634251713753 -0.005568370223045349
-0.08985203504562378 0.012622611597180367 0.2733969986438751
0.15557825565338135 -0.09279054403305054 0.35496577620506287
-0.09959957748651505 0.05995631963014603 0.2905256450176239
-0.10642224550247192 0.3013816475868225 0.4038965702056885
0.36188727617263794 0.029387395828962326 -0.0366474874317646
0.04634282737970352 -0.06570086628198624 -0.14100930094718933
0.15657173097133636 -0.08878569304943085 0.4182216227054596
0.11001844704151154 -0.07970524579286575 0.05699923634529114
-0.09779512137174606 0.05803648382425308 0.0026028957217931747
-0.08517403900623322 0.009211241267621517 -0.00621064193546772
-0.08184249699115753 0.010986636392772198 0.08299180120229721
-0.00665642973035574 -0.06416835635900497 0.0020393189042806625
-0.07361350953578949 0.016098923981189728 -0.01399138756096363
-0.10528427362442017 0.18095751106739044 0.3170071244239807
-0.02389274723827839 -0.06303809583187103 -0.011260471306741238
0.03240407258272171 -0.061309218406677246 -0.027093324810266495
-0.09881512820720673 0.061733946204185486 0.0054723769426345825
-0.022482281550765038 -0.058100394904613495 -0.010931411758065224
0.07925429195165634 -0.07329236716032028 0.010742593556642532
-0.040244605392217636 -0.052735164761543274 -0.010648448020219803
0.10451997071504593 -0.0665624812245369 -0.021490365266799927
-0.08842678368091583 0.004116077907383442 -0.00839376263320446
-0.08279076218605042 -0.02409140206873417 0.3653775155544281
-0.004441471770405769 -0.07135452330112457 0.03636086359620094
-0.0846232995390892 0.010507587343454361 -0.020450063049793243
-0.08051042258739471 0.003929693251848221 0.11327940225601196
0.13102637231349945 -0.07295504957437515 0.0912291556596756
0.3657097816467285 0.05876888334751129 0.10708712041378021
-0.008301891386508942 -0.05306316167116165 0.005425612907856703
0.11976788192987442 -0.07705570757389069 0.26541903614997864
0.02305592969059944 -0.07221365720033646 0.035131312906742096
-0.07982555031776428 0.030637113377451897 0.05347536504268646
-0.08113075792789459 0.025171978399157524 0.048772357404232025
-0.011671250686049461 -0.05266039818525314 -0.008328687399625778
0.24106088280677795 -0.07395732402801514 0.30023032426834106
0.08251945674419403 -0.07549745589494705 0.006078926846385002
-0.08377770334482193 0.004382675513625145 -0.017438527196645737
-0.09957201778888702 0.19369715452194214 0.04563526064157486
-0.08272427320480347 0.013488221913576126 -0.016240853816270828
-0.06400606036186218 -0.08326539397239685 0.4526694416999817
-0.08373692631721497 0.05493473634123802 0.0032151308842003345
-0.08729133754968643 -0.008798130787909031 0.0864887684583664
-0.10103324055671692 0.045848652720451355 0.39309161901474
-0.10344754159450531 0.18238574266433716 -0.02805240824818611
-0.02202736586332321 -0.059974029660224915 0.0020031221210956573
0.18613313138484955 -0.08362103998661041 -0.09524804353713989
-0.016413286328315735 -0.05802018195390701 0.12651199102401733
-0.08778659999370575 0.01784658059477806 -0.016401365399360657
-0.11775963008403778 0.1515716314315796 0.41567063331604004
0.03259721398353577 -0.07140100002288818 -0.01437002420425415
0.12321953475475311 -0.07871974259614944 0.038539819419384
-0.10303373634815216 0.07530767470598221 0.22624897956848145
-0.06667126715183258 -0.05834469571709633 -0.04728618636727333
0.008411291055381298 -0.061701010912656784 0.013109825551509857
-0.08327152580022812 0.016336645931005478 -0.011776166968047619
-0.09591016173362732 0.2568203806877136 0.1421463042497635
-0.08139794319868088 0.011636215262115002 -0.008644215762615204
0.020439602434635162 -0.06524499505758286 -0.01584581658244133
-0.08186852931976318 0.012609429657459259 -0.01212888304144144
-0.08328854292631149 0.0475962832570076 -0.003737496677786112
-0.07927557080984116 0.00986981950700283 -0.008274635300040245
-0.08474079519510269 -0.006625112146139145 0.08376132696866989
-9.413063526153564e-05 -0.06584431231021881 0.03451945632696152
-0.09612181782722473 0.07458634674549103 0.059410080313682556
-0.028900180011987686 -0.06094754487276077 0.14509928226470947
0.3267518877983093 -0.06473004817962646 0.1376994550228119
-0.001757985446602106 -0.060331229120492935 0.06304947286844254
0.0604681670665741 -0.07614697515964508 0.1546134054660797
-0.07837967574596405 -0.011239223182201385 0.09526753425598145
-0.01639631763100624 -0.07638128101825714 0.21847648918628693
0.003930878825485706 -0.0666910707950592 0.020770063623785973
0.32790228724479675 0.0024203192442655563 0.15684378147125244
-0.016708102077245712 -0.06459245085716248 -0.006419883109629154
0.00412658229470253 -0.06169106438755989 0.030616972595453262
-0.05998769402503967 -0.06739259511232376 0.2840953469276428
-0.08855438232421875 0.3114094138145447 0.21652665734291077
-0.11420993506908417 0.1476677507162094 -0.19343401491641998
0.05534800887107849 -0.07024683803319931 0.04525250196456909
0.002423025667667389 -0.06642648577690125 0.0442342609167099
-0.07930973917245865 -0.0006112623959779739 0.11463464051485062
0.03954619914293289 -0.07267985492944717 -0.014500681310892105
-0.08588708937168121 0.010150549001991749 -0.007000783458352089
0.03279411047697067 -0.06369272619485855 0.04813818261027336
-0.10476626455783844 0.07006512582302094 0.05763419717550278
0.03936190903186798 -0.07307473570108414 -0.012407777830958366
0.10039730370044708 -0.0768187940120697 0.0169852115213871
0.35477572679519653 0.04640446603298187 0.20681315660476685
-0.09216666221618652 0.26053696870803833 0.09230543673038483
0.23785918951034546 -0.06838899850845337 0.10526173561811447
0.26540637016296387 -0.07466751337051392 0.20613457262516022
-0.017582593485713005 -0.067583367228508 -0.0036828378215432167
-0.08178556710481644 0.001540730707347393 -0.02812480553984642
-0.07756148278713226 -0.008796507492661476 0.07911548763513565
0.06562833487987518 -0.07101289182901382 0.05958286672830582
-0.10082066804170609 0.05122198909521103 -0.0046597374603152275
-0.10070155560970306 0.17962567508220673 0.23016102612018585
-0.03604245185852051 -0.05893327295780182 -0.0008474066853523254
0.06345289200544357 -0.07699119299650192 0.19632866978645325
0.02341628260910511 -0.07176411151885986 -0.006060480605810881
-0.040168117731809616 -0.051158662885427475 -0.0013781767338514328
0.01743372529745102 -0.06671806424856186 0.025983944535255432
-0.10415902733802795 0.06594548374414444 0.330275297164917
-0.08137668669223785 0.007106355391442776 -0.016127925366163254
0.23174886405467987 -0.07654835283756256 0.2101159691810608
-0.08392714709043503 0.0204720888286829 -0.019597411155700684
0.04131821170449257 -0.0712844729423523 -0.008681636303663254
-0.0841677337884903 0.008607491850852966 0.012953780591487885
-0.07883922010660172 -0.06925482302904129 0.2017233669757843
-0.005559406243264675 -0.06203825771808624 0.037526458501815796
-0.09054091572761536 0.037001319229602814 0.11381011456251144
0.054565075784921646 -0.07306599617004395 0.16976827383041382
-0.026612456887960434 -0.07759854942560196 0.1649153232574463
-0.005115634761750698 -0.06725043058395386 0.1206463947892189
0.09123707562685013 -0.07206929475069046 -0.004264829680323601
-0.04968305677175522 -0.04999144747853279 -0.15158797800540924
0.1622058004140854 -0.07903826236724854 -0.04631227254867554
-0.07936535775661469 -0.01652560569345951 0.01656140573322773
-0.0803937241435051 -0.0034496630541980267 0.08560505509376526
-0.08253469318151474 0.03452029451727867 0.050335925072431564
0.11868498474359512 -0.06555891782045364 -0.09373808652162552
0.10286399722099304 -0.07346240431070328 0.0873432457447052
0.0019013583660125732 -0.07154275476932526 0.03656872361898422
-0.08886894583702087 -0.00020780065096914768 0.09263230115175247
0.21090462803840637 -0.05176280438899994 -0.015942759811878204
-0.10079669952392578 0.12377160042524338 0.2928994297981262
-0.09452228993177414 0.04553285241127014 0.024386433884501457
-0.08828336745500565 0.01693611778318882 -0.0068578291684389114
-0.07969392836093903 0.0020542293787002563 0.011884230189025402
0.0036240974441170692 -0.05937250331044197 0.020745597779750824
0.04165862128138542 -0.07040572911500931 0.07084149867296219
-0.07463981211185455 0.008518191054463387 -0.01798243075609207
0.09972475469112396 -0.06829601526260376 0.01653732731938362
-0.08392997086048126 0.03224454075098038 0.04398452490568161
-0.07468845695257187 -0.005898104980587959 0.06785507500171661
0.08394807577133179 -0.07950872927904129 0.014423293992877007
0.021267272531986237 -0.06445665657520294 0.18367551267147064
0.07979071885347366 -0.06940790265798569 0.007339116185903549
0.0993681252002716 -0.07449404895305634 -0.008131435140967369
-0.09525005519390106 0.011411720886826515 0.013190663419663906
-0.020897366106510162 -0.067734494805336 0.0021563423797488213
-0.08142663538455963 0.019364219158887863 0.00675162672996521
-0.009557284414768219 -0.06406337767839432 -0.02859911322593689
-0.010347421281039715 -0.06653029471635818 -0.023415274918079376
0.14857032895088196 -0.08178046345710754 0.010411102324724197
0.0070148129016160965 -0.06669237464666367 0.009805263951420784
-0.10534830391407013 0.042940132319927216 0.2670368552207947
-0.08776482939720154 0.056608736515045166 0.027156928554177284
0.035736676305532455 -0.07490503042936325 -0.007036525756120682
-0.08240757882595062 0.02209528535604477 -0.02018848992884159
0.09583041071891785 -0.07574594020843506 0.05657931789755821
0.07763379067182541 -0.08156704157590866 0.12065788358449936
-0.011569028720259666 -0.06301241368055344 0.14793825149536133
0.1453685164451599 -0.07250137627124786 0.009661654010415077
0.03007478266954422 -0.07075121998786926 0.09185345470905304
-0.09415602684020996 0.032177165150642395 -0.0644715428352356
-0.0033874865621328354 -0.07082823663949966 0.07139436900615692
-0.09137320518493652 0.02140693925321102 0.27740201354026794
-0.08213668316602707 0.009681740775704384 0.012298781424760818
-0.09138300269842148 0.02882499247789383 0.05065950006246567
-0.02387944608926773 -0.051291707903146744 -0.02374180033802986
-0.09547417610883713 0.0441700741648674 0.041545189917087555
-0.0064651742577552795 -0.06211736053228378 0.0559641569852829
-0.09907647967338562 0.16286331415176392 0.10491377115249634
-0.08969562500715256 0.030321579426527023 0.00800507515668869
-0.07468334585428238 -0.021376358345150948 -0.0038756681606173515
0.27518177032470703 -0.04923087731003761 -0.03401575982570648
-0.010792611166834831 -0.05046536773443222 -0.061925943940877914
-0.08825461566448212 0.011205170303583145 -0.011102947406470776
-0.021791305392980576 -0.05970713496208191 0.04764138162136078
-0.08111829310655594 0.011818356812000275 0.017387384548783302
-0.10238184779882431 0.16404452919960022 -0.004025742411613464
-0.0023140739649534225 -0.055982545018196106 0.05610410124063492
0.053624458611011505 -0.0684056282043457 0.010530536994338036
-0.020073628053069115 -0.06061078980565071 -0.01241905428469181
-0.016554241999983788 -0.06253008544445038 -0.026085760444402695
0.08090678602457047 -0.07209402322769165 -0.002327744150534272
-0.08425068110227585 -0.0006643775850534439 0.08454037457704544
-0.09145042300224304 0.04464322328567505 0.13767865300178528
-0.0884091705083847 0.013268794864416122 0.012426050379872322
-0.07861192524433136 0.006560814566910267 0.003194584744051099
-0.08530716598033905 0.018257077783346176 0.014627207070589066
-0.08213590830564499 0.0003349287435412407 0.07599768787622452
-0.08452484756708145 0.019703999161720276 0.07582860440015793
-0.07352041453123093 0.0015827998286113143 -0.018619272857904434
0.08191388845443726 -0.07223214209079742 -0.00367598794400692
-0.09085570275783539 0.023808840662240982 0.06137295812368393
-0.10042328387498856 0.1537136435508728 0.18418624997138977
-0.05772307887673378 -0.0138931293040514 -0.0776960700750351
0.06597644835710526 -0.07904314249753952 0.006720585748553276
-0.0812089741230011 0.007154664024710655 0.10221884399652481
-0.09827547520399094 0.10822920501232147 -0.006659744773060083
0.014982103370130062 -0.07919889688491821 0.21216635406017303
0.004790965002030134 -0.0667998343706131 0.024715274572372437
-0.014308009296655655 -0.0628010705113411 -0.03281526267528534
-0.0872032642364502 0.02596297487616539 -0.016158854588866234
-0.0002553369849920273 -0.0607454888522625 0.08994334191083908
0.009941797703504562 -0.07351990044116974 0.001550702378153801
-0.08145816624164581 -0.005846087820827961 0.0867205411195755
0.03588356450200081 -0.08305039256811142 0.2620696723461151
-0.09208910167217255 0.040312185883522034 0.23143793642520905
-0.10924525558948517 0.2713066339492798 0.03178307041525841
-0.07709251344203949 -0.008609915152192116 -0.10201169550418854
-0.10469221323728561 0.21031434834003448 0.18022774159908295
0.04475851356983185 -0.07167865335941315 0.04507344216108322
0.06795604526996613 -0.08379841595888138 -0.052573464810848236
0.029179953038692474 -0.06913970410823822 -0.03305615857243538
-0.031040508300065994 -0.05902015045285225 0.048878852277994156
0.1267470270395279 -0.08642642945051193 0.1344965696334839
-0.05222450941801071 -0.05840543657541275 -0.01941981539130211
-0.09959233552217484 0.10671726614236832 0.1975805163383484
-0.08701414614915848 -0.0011367090046405792 -0.01995045505464077
-0.08273165673017502 0.35206446051597595 0.3282616138458252
-0.10040941089391708 -0.03006947599351406 0.4004066586494446
0.0751170739531517 -0.0787908211350441 -0.0026699136942625046
0.09874792397022247 -0.07227037847042084 0.16619248688220978
-0.0989636704325676 0.3394619822502136 0.26778972148895264
-0.08814781159162521 0.05737004429101944 0.02687293291091919
-0.08532949537038803 0.018866606056690216 0.018526213243603706
0.03955703228712082 -0.07197466492652893 -0.021288953721523285
0.22472414374351501 -0.0648743063211441 -0.1760910153388977
0.06488416343927383 -0.07039131224155426 -0.019720174372196198
-0.09584666043519974 0.02665551006793976 0.027672642841935158
-0.01706659607589245 -0.06599695980548859 0.051175057888031006
-0.070780448615551 -0.02691715955734253 -0.018854979425668716
0.07339632511138916 -0.07223648577928543 0.09178933501243591
-0.0861637145280838 0.012214671820402145 -0.01437920518219471
-0.03174221143126488 -0.06429511308670044 -0.01537976786494255
0.04906058311462402 -0.06635602563619614 0.02361203543841839
-0.06888668984174728 -0.0644291564822197 0.061715029180049896
-0.08591155707836151 -0.0439886674284935 0.03860766068100929
-0.11263038218021393 0.08043022453784943 0.3837893605232239
-0.02799972891807556 -0.05926720052957535 -0.10083848983049393
0.08120213449001312 -0.0798916444182396 0.008867108263075352
-0.009039853699505329 -0.06171848624944687 -0.024623554199934006
-0.031230157241225243 -0.04196204990148544 -0.03625887632369995
0.033841364085674286 -0.0678626000881195 0.02303433045744896
0.04189858213067055 -0.08168723434209824 0.3210481107234955
0.0014490820467472076 -0.065326027572155 0.046778272837400436
-0.09154768288135529 0.02339489944279194 0.2776150405406952
-0.06465190649032593 -0.08173363655805588 0.3585454821586609
-0.06469327956438065 -0.03264765441417694 0.16329260170459747
-0.009202530607581139 -0.06202610582113266 0.0026454199105501175
-0.0981065034866333 0.062373530119657516 -0.013567108660936356
-0.032039932906627655 -0.08514881134033203 0.3823806345462799
0.0469256155192852 -0.07085514813661575 -0.009731428697705269
0.34817495942115784 0.05513995140790939 0.3024943768978119
-0.07421153783798218 0.006018814630806446 -0.037813950330019
-0.06877870857715607 -0.04061884433031082 -0.019097235053777695
-0.08969082683324814 0.03272830322384834 0.04587389528751373
0.013729605823755264 -0.0713178813457489 0.039214953780174255
-0.018008703365921974 -0.06249623745679855 -0.017613355070352554
-0.08007392287254333 0.026305831968784332 0.04699893668293953
-0.08567918837070465 0.015518179163336754 -0.014275730587542057
-0.015815570950508118 -0.06694373488426208 0.1314087063074112
-0.10695138573646545 0.07980591058731079 -0.030519692227244377
-0.09752348810434341 0.07151979953050613 0.10329627990722656
-0.012768993154168129 -0.057572245597839355 -0.017948519438505173
0.005488265305757523 -0.07211976498365402 0.13024234771728516
0.03005816787481308 -0.06516660004854202 -0.01885022595524788
0.018326612189412117 -0.06651360541582108 0.018256179988384247
-0.08268827944993973 0.0014366768300533295 0.07530704885721207
-0.019957780838012695 -0.06027011573314667 -0.015390870161354542
0.02224772796034813 -0.06712481379508972 0.08119229227304459
0.3433069884777069 -0.002108426298946142 -0.14154979586601257
0.20986448228359222 -0.07600133121013641 0.3783089220523834
-0.08317744731903076 0.03272821754217148 0.02793591283261776
-0.07911808788776398 -0.012020407244563103 -0.01176823116838932
0.11563747376203537 -0.08657054603099823 -0.05295349657535553
-0.09851052612066269 0.08920001983642578 0.43166956305503845
-0.09623533487319946 0.07271327078342438 0.06151006370782852
0.08779258280992508 -0.08289095759391785 0.2380647212266922
-0.1037621945142746 0.25196266174316406 -0.060332439839839935
-0.0857754796743393 0.03258894383907318 0.02920234575867653
0.0274904016405344 -0.0762530192732811 0.14135314524173737
-0.0981607586145401 0.28743478655815125 0.2758137583732605
0.21790608763694763 -0.08236593008041382 0.45144325494766235
-0.10115133970975876 0.05072016268968582 0.3148079216480255
-0.07202821224927902 -0.020290952175855637 0.021907882764935493
0.03244418650865555 -0.07567207515239716 -0.026346636936068535
0.0053384508937597275 -0.06680533289909363 0.17725273966789246
-0.0862678661942482 0.013884482905268669 -0.022998543456196785
0.19443446397781372 -0.07695246487855911 0.2451593577861786
-0.008675643242895603 -0.06327711045742035 0.030604790896177292
-0.08340011537075043 0.009909942746162415 -0.011175568215548992
0.22095775604248047 -0.06825036555528641 0.019577596336603165
0.02068367972970009 -0.07154835760593414 -0.00355521310120821
-0.08147077262401581 0.002088753040879965 -0.008397111669182777
0.0035971570760011673 -0.06598715484142303 0.003264082595705986
0.04369460791349411 -0.07266730070114136 0.007253346033394337
0.02396814525127411 -0.06769342720508575 -0.014223934151232243
0.20320257544517517 -0.07338601350784302 0.1239430159330368
0.2949601709842682 -0.08484774827957153 0.44371697306632996
0.16114108264446259 -0.07432936131954193 -0.1710222214460373
0.18604643642902374 -0.072507843375206 0.08426115661859512
0.2295319139957428 -0.08268911391496658 0.26797839999198914
-0.0833049789071083 -0.006910809315741062 0.08776106685400009
-0.08517147600650787 0.02031002938747406 -0.01213215384632349
-0.0790204107761383 0.0033857785165309906 0.2529894709587097
-0.0883910059928894 0.03875322639942169 0.04269195348024368
-0.03834046795964241 -0.07035338878631592 0.06837508082389832
0.10277736932039261 -0.07855150103569031 -0.007511156145483255
-0.08051450550556183 0.009506434202194214 0.04773488640785217
0.01335957646369934 -0.06381143629550934 -0.016790704801678658
-0.015628188848495483 -0.06629709899425507 -0.027636483311653137
-0.07548404484987259 -0.06349420547485352 0.1208268254995346
-0.09281113743782043 0.014923729002475739 -0.007220183499157429
0.020736530423164368 -0.07851079106330872 -0.01645991951227188
-0.11139237880706787 0.20935674011707306 0.37018752098083496
-0.0012201610952615738 -0.0671258270740509 0.031525690108537674
-0.0834662914276123 0.00039065536111593246 0.06753752380609512
0.3432636857032776 0.046174369752407074 -0.16868998110294342
-0.10092952102422714 0.24856074154376984 0.10411714762449265
0.09048999845981598 -0.07086813449859619 0.1308852732181549
-0.0830998346209526 0.012285184115171432 -0.009433824568986893
-0.10613200813531876 0.04235819727182388 0.36238884925842285
-0.10561537742614746 0.0675370991230011 -0.06337463110685349
-0.021367819979786873 -0.06532716006040573 0.0006712265312671661
-0.08714587986469269 0.01388244517147541 -0.0035390257835388184
0.036683641374111176 -0.07269620150327682 -0.03235923498868942
-0.0260993093252182 -0.05605379492044449 0.00825024489313364
0.04660489037632942 -0.07442914694547653 0.12066015601158142
0.0053067319095134735 -0.06572961807250977 0.04106567054986954
-0.10447128117084503 0.05218766629695892 0.2109868824481964
-0.008975543081760406 -0.062358688563108444 0.11262587457895279
-0.02007904462516308 -0.04807452857494354 -0.02578451856970787
0.027243878692388535 -0.06850473582744598 -0.02384660765528679
-0.09704761952161789 0.050856564193964005 0.3124021589756012
0.2775346040725708 -0.06237808242440224 0.010853159241378307
0.006765939295291901 -0.06292253732681274 0.0352298878133297
0.012081305496394634 -0.0667886734008789 0.011267886497080326
0.0024158691521734 -0.06686282157897949 0.018421940505504608
-0.07656338810920715 0.002289280528202653 -0.0012904987670481205
-0.084567129611969 0.04643465578556061 -0.013177906163036823
0.024177804589271545 -0.06612410396337509 -0.01723555102944374
-0.07783675193786621 -0.03902168571949005 0.40614140033721924
-0.0809902474284172 -0.006376358680427074 -0.04076388478279114
-0.08599374443292618 0.014439067803323269 -0.012969686649739742
-0.020364077761769295 -0.06853708624839783 -0.02144700661301613
-0.09481097012758255 0.04157281666994095 0.035036712884902954
0.1464148610830307 -0.07506886124610901 0.21419508755207062
-0.02796836942434311 -0.07644283026456833 0.13946916162967682
0.1818808913230896 -0.06137223541736603 -0.007976111024618149
0.08581342548131943 -0.0778832733631134 0.12205332517623901
0.0033146757632493973 -0.06836961954832077 0.024966653436422348
0.06645315140485764 -0.07178384065628052 0.0031844470649957657
-0.08349187672138214 0.01337705459445715 0.011585481464862823
-0.09304101765155792 0.039173759520053864 -0.16648316383361816
-0.08401767164468765 0.0007930928841233253 -0.0032707154750823975
0.08662239462137222 -0.07703845947980881 0.006791922729462385
-0.018798910081386566 -0.05570843815803528 0.14786309003829956
-0.07495772838592529 0.3719705641269684 0.39919739961624146
-0.08761133253574371 -0.03561489284038544 0.2431679517030716
0.03045235574245453 -0.06739881634712219 0.05097021535038948
0.11243563890457153 -0.07128136605024338 0.007936490699648857
-0.09392064809799194 0.1199379488825798 0.144537091255188
-0.1051483154296875 0.13088607788085938 0.2346721589565277
0.005545042455196381 -0.06196814402937889 0.029457001015543938
-0.11831220984458923 0.13354206085205078 0.3792969584465027
-0.10453024506568909 0.2638108730316162 0.4223990738391876
-0.10860872268676758 0.172275111079216 0.07303272932767868
-0.10977384448051453 0.10132426023483276 0.03517976030707359
-0.021829359233379364 -0.05244138091802597 0.046803541481494904
-0.020966390147805214 -0.06964544206857681 0.06631682068109512
-0.09865279495716095 0.08176751434803009 0.04393311217427254
-0.07958465814590454 -0.012590564787387848 0.000736648216843605
-0.08708865940570831 0.05671602860093117 0.23478084802627563
-0.09815994650125504 0.08500093221664429 0.01484423503279686
0.15534530580043793 -0.08013542741537094 0.32064685225486755
-0.10313603281974792 0.17370527982711792 0.007971467450261116
-0.017527718096971512 -0.05817590281367302 -0.005532372742891312
-0.07788851112127304 0.01503734104335308 -0.006889756768941879
0.23093366622924805 -0.07402553409337997 0.15772046148777008
0.008866548538208008 -0.06702125072479248 0.017657959833741188
-0.07643488049507141 0.002945326268672943 0.07864899933338165
-0.08873670548200607 0.03396505117416382 0.02365783229470253
0.0514124259352684 -0.07602153718471527 0.256049782037735
-0.02671954035758972 -0.07451429218053818 0.0964885801076889
0.04262613505125046 -0.07309528440237045 -0.01003147941082716
-0.08926460891962051 0.0028465911746025085 -0.0072942739352583885
0.02511582523584366 -0.0702039897441864 -0.02131640538573265
-0.08479037135839462 0.01287110149860382 0.012862486764788628
-0.08698602020740509 0.02054636925458908 0.009824587032198906
-0.0855078399181366 0.024531200528144836 0.25078460574150085
-0.07886946201324463 -0.005708777811378241 0.11329769343137741
-0.09673596173524857 0.1050095483660698 0.10043439269065857
-0.08624459058046341 -0.0018377378582954407 0.06921859085559845
-0.013097336515784264 -0.07427802681922913 -0.01017245277762413
-0.09710368514060974 0.22381848096847534 0.19990965723991394
-0.02051890455186367 -0.06109821796417236 -0.021591318771243095
0.23969194293022156 -0.08809509873390198 0.40898773074150085
-0.08347984403371811 0.045332521200180054 0.0025774873793125153
-0.0854385644197464 0.01536346971988678 0.024239154532551765
-0.00036075152456760406 -0.07053195685148239 0.2661168575286865
-0.031308937817811966 -0.06465250998735428 0.19398021697998047
0.004269752651453018 -0.08880501985549927 0.23912185430526733
0.028159985318779945 -0.06872682273387909 0.09063027054071426
-0.07046382129192352 -0.062158793210983276 -0.0092870332300663
-0.04315989091992378 -0.06386738270521164 0.3027832508087158
-0.09655171632766724 0.09082106500864029 0.18237634003162384
-0.0818949043750763 -0.07697796821594238 0.40933868288993835
0.10251930356025696 -0.07651102542877197 0.010304033756256104
-0.08071549236774445 -0.009273741394281387 0.31100454926490784
-0.009338854812085629 -0.07143692672252655 0.00028253160417079926
0.032768093049526215 -0.07082003355026245 -0.008442605845630169
-0.007085001096129417 -0.06200264021754265 -0.11581805348396301
-0.11123921722173691 0.13445286452770233 0.32816484570503235
-0.09115467965602875 0.32323965430259705 0.10410727560520172
-0.08009438216686249 -0.005062422715127468 0.11691269278526306
-0.10283729434013367 0.24078454077243805 0.005145985633134842
-0.08169279992580414 0.007832387462258339 0.020535986870527267
-0.01872912235558033 -0.06474821269512177 0.12465482205152512
-0.08820758014917374 0.011815303936600685 -0.005127795971930027
0.12009784579277039 -0.08802322298288345 0.02170722372829914
0.06691373139619827 -0.07453732937574387 -0.02825869992375374
-0.08629896491765976 -0.0057887909933924675 0.09368015825748444
-0.09649680554866791 0.0741502046585083 0.3157711625099182
0.008046185597777367 -0.06923740357160568 0.06398338079452515
-0.102110356092453 0.03152880817651749 0.42999106645584106
-0.08431462943553925 0.010453324764966965 0.0807439312338829
-0.1055617481470108 0.1326858401298523 -0.06503318250179291
0.2693263590335846 -0.06819761544466019 0.3522263765335083
-0.08427757024765015 0.016048485413193703 -0.014202735386788845
0.06848642975091934 -0.07629118859767914 0.010001063346862793
-0.08804109692573547 0.005371460225433111 0.02348347380757332
-0.09645301848649979 0.07515794038772583 -0.001780028222128749
-0.07776995003223419 0.0033082482405006886 -0.017167819663882256
-0.07854888588190079 0.0147937573492527 -0.00237322598695755
0.04258601367473602 -0.0632287785410881 -0.009283702820539474
0.01246009860187769 -0.06627660989761353 0.22069182991981506
-0.014079420827329159 -0.061977699398994446 -0.021248459815979004
-0.07453574240207672 0.00787515938282013 -0.014142829924821854
0.08864404261112213 -0.07148124277591705 0.0047789327800273895
-0.08168873190879822 -0.0033624935895204544 0.086469866335392
0.0729844868183136 -0.07361367344856262 0.12705372273921967
0.3259495198726654 -0.05170290172100067 0.0657164603471756
-0.08214110136032104 -0.034578677266836166 -0.012540031224489212
-0.08332118391990662 0.0034685241989791393 -0.0068444497883319855
0.022025499492883682 -0.06553672254085541 0.08852721750736237
-0.0972924679517746 0.07482617348432541 0.042654987424612045
-0.0029993527568876743 -0.061518922448158264 0.0658278614282608
-0.05579720810055733 -0.041210003197193146 -0.07857859134674072
-0.04250527173280716 -0.0545450896024704 0.09743000566959381
-0.028042996302247047 -0.06685952097177505 0.0898728221654892
0.009622691199183464 -0.06902603805065155 0.033697739243507385
-0.08834041655063629 0.016377786174416542 0.009275194257497787
-0.019615285098552704 -0.06184834614396095 -0.16473260521888733
0.25448673963546753 -0.05966503545641899 -0.11588205397129059
-0.08764825761318207 -0.0042683761566877365 -0.010685224086046219
-0.09418250620365143 0.022599168121814728 -0.014769832603633404
0.03343411907553673 -0.07883630692958832 0.3396819233894348
-0.09526989609003067 0.014596568420529366 0.2511751651763916
-0.04504041373729706 -0.05307791382074356 -0.002471061423420906
-0.04821843281388283 -0.07104530185461044 0.20966947078704834
-0.0777868777513504 -0.001511986367404461 0.017734169960021973
0.09366022795438766 -0.07423969358205795 0.006906906608492136
-0.07995384931564331 0.004814703017473221 -0.00909662339836359
0.03259159252047539 -0.06451022624969482 0.17150603234767914
-0.07437814772129059 -0.012918001972138882 0.023825958371162415
-0.10625285655260086 0.06596970558166504 0.30689889192581177
-0.07463327050209045 0.3327251076698303 -0.03906508535146713
-0.0762949138879776 -0.01532728224992752 0.0806676521897316
0.010265234857797623 -0.06471370160579681 0.02102317288517952
0.15645456314086914 -0.09383293986320496 0.44865861535072327
-0.08393174409866333 0.016252513974905014 0.012129847891628742
-0.07519684731960297 0.004575921222567558 -0.028178788721561432
0.01596265845000744 -0.0660979151725769 -0.008351186290383339
-0.05717688053846359 -0.05696596950292587 0.043123822659254074
-0.0800367146730423 0.028394052758812904 0.04495503380894661
-0.0900760293006897 0.01710299402475357 0.0294998437166214
-0.07527846843004227 -0.00665859691798687 0.0813954621553421
0.04076986014842987 -0.06915492564439774 -0.0413331612944603
-0.013673779554665089 -0.08023667335510254 0.4282003939151764
-0.0214817076921463 -0.06395609676837921 -0.014998707920312881
-0.08330731093883514 0.028371667489409447 0.027692465111613274
-0.08408993482589722 0.030885107815265656 0.02011517435312271
-0.09839771687984467 0.019525181502103806 0.3127657175064087
0.0010158736258745193 -0.06692197173833847 0.029729189351201057
-0.09020776301622391 0.01231742836534977 -0.011281188577413559
-0.025969533249735832 -0.04430021345615387 -0.0603189654648304
0.002193741500377655 -0.06614256650209427 0.080866239964962
-0.08574976772069931 0.009015167132019997 -0.022877825424075127
-0.08034975826740265 0.014998648315668106 -0.017364714294672012
0.003781906794756651 -0.08271779119968414 0.37862759828567505
-0.09964083135128021 0.31335413455963135 0.3655393123626709
0.25591808557510376 -0.061846774071455 0.009596265852451324
0.012982671149075031 -0.06501427292823792 0.011704758740961552
-0.08085291087627411 -0.0034924987703561783 0.07943092286586761
-0.0267132967710495 -0.05942414700984955 -0.020921604707837105
0.09929609298706055 -0.08817548304796219 0.35152381658554077
-0.08622215688228607 0.010457789525389671 0.11228174716234207
-0.005524124950170517 -0.06191845238208771 0.05809902027249336
0.07602270692586899 -0.10113773494958878 0.39633604884147644
-0.08051863312721252 0.029086435213685036 -0.0008818460628390312
-0.012245625257492065 -0.0755997970700264 0.0017258208245038986
-0.019861344248056412 -0.06791939586400986 0.1880813091993332
-0.09384364634752274 0.05175083130598068 -0.10560724139213562
-0.0231926292181015 -0.0480969063937664 -0.030167106539011
-0.0813443660736084 0.0061820317059755325 -0.010888826102018356
-0.07481130957603455 -0.0017054956406354904 0.060475680977106094
0.014396199025213718 -0.06389302015304565 0.008550993166863918
0.027823662385344505 -0.07196880877017975 0.08780945092439651
0.05864514037966728 -0.0782412737607956 0.016960948705673218
-0.07859119027853012 -0.07034367322921753 0.15870511531829834
0.07357107102870941 -0.07425156980752945 0.0036280378699302673
-0.08179143816232681 0.006351495161652565 -0.01695735566318035
-0.027810372412204742 -0.05653596296906471 0.06635691970586777
0.006316225975751877 -0.06566698849201202 0.026463933289051056
0.20492281019687653 -0.06976189464330673 0.08434443175792694
0.08266924321651459 -0.09154599905014038 0.44498828053474426
-0.08221781998872757 0.06575830280780792 0.00656023807823658
0.02213933877646923 -0.0656009241938591 -0.05650586262345314
0.12343329936265945 -0.07618067413568497 0.01574702374637127
-0.04183656722307205 -0.05578378587961197 0.01358572393655777
-0.07911881059408188 0.011329837143421173 0.08758269250392914
0.052436161786317825 -0.06531442701816559 0.09828761219978333
0.15603555738925934 -0.08085481077432632 0.28451940417289734
0.15581971406936646 -0.07469683140516281 0.08389736711978912
-0.06475569307804108 -0.0663042962551117 0.031282227486371994
-0.10089276731014252 0.16388513147830963 0.04438898712396622
-0.08331029117107391 0.013307329267263412 0.018474111333489418
0.010898667387664318 -0.0733964666724205 0.271416574716568
0.0920199602842331 -0.08147880434989929 -0.14168305695056915
-0.10808528959751129 0.05089045315980911 0.3355189561843872
0.11656510084867477 -0.07583141326904297 0.0815679281949997
-0.026820102706551552 -0.05153069272637367 -0.027744662016630173
-0.08416280150413513 -0.0004941495135426521 0.08384513109922409
-3.241188824176788e-05 -0.06589105725288391 0.21498094499111176
0.08644814044237137 -0.07155369967222214 0.1912684589624405
-0.04807306081056595 -0.05776996910572052 0.08879414200782776
0.03268878161907196 -0.08585407584905624 0.22014275193214417
-0.09641672670841217 0.010905015282332897 0.2981570065021515
-0.03245346248149872 -0.06498750299215317 0.11573623865842819
-0.012521804310381413 -0.06120539456605911 -0.015525966882705688
-0.07871007919311523 -0.009401090443134308 0.14111429452896118
0.04186045750975609 -0.07325827330350876 -0.012677195481956005
-0.07536809146404266 -0.0056680310517549515 0.007305549923330545
-0.11973419040441513 0.1889045387506485 0.06806410849094391
-0.09036095440387726 0.016666634008288383 9.987689554691315e-05
-0.08244555443525314 -0.0032147755846381187 0.09887385368347168
-0.012005547061562538 -0.0717555359005928 0.20127883553504944
0.02953791618347168 -0.06561894714832306 -0.020297039300203323
-0.09228488802909851 0.05914684385061264 -0.005279435310512781
-0.08016330003738403 0.010951505973935127 -0.007313936483114958
-0.010115823708474636 -0.08251392841339111 0.31167370080947876
-0.08421845734119415 0.044013626873493195 0.15664155781269073
0.035665709525346756 -0.07199882715940475 -0.01629830151796341
-0.09176651388406754 -0.002183513715863228 0.3421824276447296
-0.08271653950214386 0.008576255291700363 0.015545503236353397
0.1160941794514656 -0.07715488970279694 0.11147981137037277
0.04046352952718735 -0.07053297758102417 -0.019564682617783546
-0.09110063314437866 0.012013087049126625 -0.00381450355052948
-0.10220770537853241 0.051748037338256836 0.18896472454071045
0.057490769773721695 -0.0721794068813324 0.015485803596675396
-0.0856834128499031 0.017943575978279114 0.014259960502386093
-0.07103505730628967 0.36092203855514526 0.24606743454933167
-0.053885310888290405 -0.03456439822912216 -0.029048893600702286
-0.006505349650979042 -0.058246687054634094 0.05463086813688278
-0.1014789268374443 0.11147820949554443 0.09922341257333755
-0.11001124978065491 0.14790962636470795 0.11871138215065002
-0.08565188944339752 0.06681064516305923 -0.00722708273679018
-0.07989650219678879 0.0028822720050811768 0.007807707414031029
0.34993109107017517 0.01851051300764084 0.07977082580327988
-0.027477506548166275 -0.06644183397293091 0.0921715646982193
-0.09354083240032196 0.3231830596923828 0.32078415155410767
0.3839598000049591 0.0701000988483429 0.01151264552026987
0.014251270331442356 -0.06866855174303055 -0.027773618698120117
-0.09423992037773132 0.046690233051776886 0.24856212735176086
0.028300631791353226 -0.06950350105762482 -0.012689843773841858
-0.08603686094284058 0.034298136830329895 0.023687778040766716
-0.06756719946861267 0.0002076365053653717 -0.12820981442928314
-0.09129457920789719 0.01725119911134243 0.011253837496042252
0.03635657578706741 -0.08059423416852951 -0.07414238154888153
0.14417599141597748 -0.07736906409263611 0.04341084882616997
0.0007514087483286858 -0.07485850900411606 0.01448444277048111
0.03181972727179527 -0.06645313650369644 -0.040983423590660095
-0.08301996439695358 -0.01115475594997406 0.08735361695289612
-0.10564301162958145 0.1269313097000122 -0.009833533316850662
-0.09564433991909027 0.014800786040723324 -0.02275238372385502
-0.07513963431119919 -0.017425594851374626 -0.0008084578439593315
0.031395021826028824 -0.06433998793363571 0.07164318859577179
-0.0813436359167099 -0.0024760086089372635 0.12272922694683075
-0.07906363159418106 0.005409376695752144 -0.09032975137233734
0.02779936045408249 -0.06804841011762619 0.025536546483635902
0.02241363748908043 -0.0836440846323967 0.24931076169013977
-0.08086687326431274 0.006206168327480555 0.12183022499084473
0.14308170974254608 -0.07261325418949127 0.15217986702919006
-0.10261399298906326 0.06557836383581161 0.039119333028793335
0.1327798217535019 -0.06814998388290405 0.10646162927150726
0.0039096493273973465 -0.08089469373226166 0.2310008406639099
-0.02851039730012417 -0.06067702919244766 -0.005423594266176224
-0.048628341406583786 -0.03957311064004898 -0.16491888463497162
0.06399889290332794 -0.0755067840218544 0.23312124609947205
