-0.09409499168395996 0.011579954996705055 -0.031452327966690063
0.08564884960651398 -0.08624882996082306 0.3134293258190155
0.07536346465349197 -0.06468474864959717 0.10792914777994156
-0.06060270220041275 -0.09693741053342819 0.17928390204906464
-0.0811573714017868 0.04306288808584213 -0.03194589912891388
0.09708128869533539 -0.06075899675488472 0.004058975726366043
0.06068301573395729 -0.07021304219961166 -0.02926432341337204
-0.006819657050073147 -0.07816869020462036 -0.06361053884029388
-0.023025792092084885 -0.048588719218969345 -0.06654682755470276
0.11743303388357162 -0.07187335938215256 -0.10284193605184555
-0.10092805325984955 0.15096168220043182 0.31383201479911804
0.01940781995654106 -0.022511769086122513 -0.28431057929992676
0.12793605029582977 -0.07176081091165543 -0.04086719825863838
-0.09155965596437454 0.008231677114963531 0.05141126364469528
-0.09178070724010468 -0.0510595440864563 0.29148679971694946
0.05953744798898697 -0.06190655007958412 -0.010580779984593391
0.0372016616165638 -0.07025966048240662 0.017135795205831528
-0.09177741408348083 0.03928755596280098 0.0556575171649456
0.053218863904476166 -0.0641808956861496 0.0006998497992753983
-0.0672406256198883 0.2177060842514038 0.009083380922675133
0.03841528296470642 -0.06711096316576004 0.021113891154527664
0.06364313513040543 -0.06776364892721176 -0.00669109309092164
-0.04536820948123932 -0.03894587606191635 -0.10002730786800385
-0.10381950438022614 0.04733597859740257 0.2513420581817627
-0.06336671859025955 -0.057052161544561386 -0.07624982297420502
-0.11357563734054565 0.054066527634859085 0.26533856987953186
-0.02036387473344803 0.27293360233306885 0.15178465843200684
-0.028157979249954224 -0.06096538156270981 -0.11151866614818573
0.05961232632398605 -0.06560690701007843 4.998408257961273e-06
-0.09851175546646118 -0.0012741624377667904 0.036771804094314575
0.005978934466838837 -0.04873378574848175 -0.11474179476499557
-0.047792281955480576 -0.06402303278446198 0.016115237027406693
-0.09132891893386841 0.06555739045143127 -0.07457166910171509
-0.07755623012781143 0.12103980779647827 0.32758504152297974
0.2548055648803711 -0.07544196397066116 0.2503090798854828
-0.06755287945270538 0.06510549783706665 0.05529014393687248
-0.10060222446918488 0.038200024515390396 0.018468813970685005
-0.09497718513011932 0.0039283642545342445 -0.012791886925697327
-0.04448229819536209 0.01514978613704443 -0.07734160870313644
-0.025390934199094772 -0.080619677901268 0.3603346347808838
-0.06285864859819412 -0.010410359129309654 0.2573912739753723
-0.09225459396839142 0.022113997489213943 -0.004421734716743231
-0.0964604914188385 0.031058065593242645 0.24136348068714142
-0.060843802988529205 -0.053643301129341125 0.0726907029747963
-0.08901023864746094 0.06131558120250702 0.15264946222305298
-0.0921013280749321 0.03042629361152649 -0.00481096375733614
-0.08639848977327347 0.08029225468635559 0.0999285876750946
-0.10310499370098114 -0.00019212602637708187 -0.023932870477437973
-0.09774298220872879 0.013273999094963074 -0.015477154403924942
0.04516757279634476 -0.09493004530668259 0.2745227813720703
0.2719140946865082 0.0014990316703915596 -0.21028341352939606
-0.029259543865919113 -0.09172835201025009 -0.020932402461767197
-0.1253940761089325 0.07822904735803604 0.3196362853050232
0.019476568326354027 -0.07845605164766312 -0.10077585279941559
-0.03790943697094917 -0.06741923838853836 -0.05748023837804794
-0.09374485909938812 0.002455994486808777 0.031535129994153976
-0.07713016122579575 0.0062753623351454735 -0.062036916613578796
-0.04232119768857956 -0.05969180539250374 0.0312349833548069
-0.09089378267526627 0.02785460650920868 0.011594163253903389
-0.10121895372867584 0.032841701060533524 0.00440545380115509
0.04810719937086105 -0.09601059556007385 0.2735266089439392
-0.0795297771692276 0.059207137674093246 -0.0192601028829813
-0.07833439856767654 0.06668976694345474 0.09730934351682663
0.030532050877809525 -0.07945937663316727 0.0791219174861908
0.0013717636466026306 -0.08810123056173325 0.12048551440238953
0.03520685434341431 -0.0764383003115654 0.14089122414588928
0.13512596487998962 -0.07114047557115555 0.1654219776391983
0.0653151422739029 -0.046105869114398956 -0.2724270522594452
-0.021817518398165703 -0.04207971692085266 -0.13224726915359497
0.06396866589784622 -0.06482470780611038 -0.034472931176424026
0.01909141056239605 -0.08028336614370346 0.042308613657951355
-0.08794862031936646 0.02525888942182064 0.04177773371338844
-0.015289213508367538 -0.0828251987695694 0.30015596747398376
-0.011240271851420403 -0.07894288748502731 0.030175788328051567
-0.09499406069517136 0.054428163915872574 0.024989616125822067
0.2638968825340271 0.014548461884260178 0.14263208210468292
-0.03240508586168289 -0.0690615177154541 0.0234456118196249
0.10485386848449707 -0.08040982484817505 0.009741032496094704
-0.10106010735034943 0.05652129650115967 0.2713237404823303
0.04018336907029152 -0.05653586983680725 0.019453270360827446
-0.09120681881904602 0.03874516487121582 0.008860787376761436
-0.0521346777677536 -0.046572521328926086 0.03384152799844742
0.2490919679403305 -0.01827116310596466 0.34879231452941895
-0.09409644454717636 0.24896997213363647 0.3848504424095154
0.04293481633067131 -0.05967683345079422 0.01795255020260811
0.008970385417342186 -0.08355045318603516 0.005557877942919731
0.04927970468997955 -0.06621929258108139 0.11666092276573181
0.18744103610515594 -0.09421052038669586 0.37619367241859436
-0.006114653777331114 -0.07841067761182785 -0.08016001433134079
-0.09676104784011841 0.010950187221169472 0.017375297844409943
-0.06302515417337418 -0.004599219188094139 -0.018248356878757477
0.04024265334010124 -0.07034671306610107 -0.0477561429142952
0.0654354989528656 -0.08310587704181671 0.0054480466060340405
-0.10071752965450287 0.058430057018995285 0.30150628089904785
0.029915466904640198 -0.07587841898202896 0.004883790388703346
-0.0952041894197464 -0.0011601485311985016 -0.00012349523603916168
0.17111776769161224 -0.08182942867279053 0.3661098778247833
0.03164660185575485 -0.06944465637207031 -0.01611947827041149
0.005610624793916941 -0.07617165148258209 -0.002276599407196045
-0.08915196359157562 0.02797522395849228 -0.06198418140411377
-0.09701766073703766 -0.03543046489357948 0.015462605282664299
0.16464850306510925 -0.09322431683540344 0.2588430941104889
0.22516626119613647 -0.04122064262628555 -0.13784469664096832
-0.09311051666736603 0.016657624393701553 0.0047825113870203495
-0.027424748986959457 -0.026238344609737396 -0.07035136967897415
0.023703373968601227 -0.08129919320344925 0.006423734128475189
0.04046211391687393 -0.06099101901054382 0.007984365336596966
-0.005602269433438778 -0.0915905237197876 -0.05631973594427109
-0.03795744851231575 -0.037806082516908646 -0.07005167752504349
-0.0164632648229599 -0.08653798699378967 0.010896677151322365
0.06589064002037048 -0.10083778947591782 0.37518787384033203
0.2451503574848175 0.014128944836556911 0.158772274851799
0.026364222168922424 -0.06314056366682053 -0.013040920719504356
0.048074014484882355 -0.0716087818145752 -0.014521172270178795
-0.06999211013317108 2.471543848514557e-05 -0.11139903217554092
0.04379437491297722 -0.06203553080558777 0.01615537330508232
-0.04519288241863251 -0.06259111315011978 0.027292728424072266
-0.05030607432126999 -0.03425873816013336 -0.05650577321648598
-0.10535392165184021 0.11224637180566788 -0.014972852542996407
0.05265723168849945 -0.06826518476009369 -0.014871672727167606
0.009570449590682983 -0.08718688040971756 0.0035369154065847397
0.1404399275779724 -0.06960047781467438 -0.0073088426142930984
0.1471186876296997 -0.07865403592586517 0.31681427359580994
0.15957696735858917 -0.06723073124885559 0.05831613391637802
0.1292029619216919 -0.061326444149017334 0.01999792456626892
-0.08962680399417877 0.02263692393898964 0.05314455181360245
0.1301247924566269 -0.059859082102775574 -0.007963533513247967
-0.0955236554145813 0.019341539591550827 0.00888984464108944
-0.07975328713655472 0.04901556670665741 -0.02186136320233345
0.02143486589193344 -0.07360482960939407 0.013825643807649612
-0.0942823737859726 -0.0037189042195677757 0.07226243615150452
-0.09140922129154205 0.05601087212562561 -0.1668088436126709
-0.10018106549978256 0.02006993070244789 0.3904680013656616
0.049766428768634796 -0.07178670167922974 -0.022900961339473724
0.023574981838464737 -0.08883355557918549 0.09166676551103592
-0.09918636828660965 0.11588221788406372 -0.09875437617301941
-0.0117541728541255 -0.09141280502080917 0.103605255484581
-0.038187868893146515 -0.020666971802711487 -0.13864825665950775
-0.055591799318790436 -0.05709679052233696 0.03365754336118698
-0.043858081102371216 -0.07054033875465393 -0.06256590783596039
0.0350579135119915 -0.07220418751239777 -0.02552742138504982
-0.04923759400844574 -0.06249307096004486 0.025632712990045547
-0.07204372435808182 -0.06496817618608475 0.07295872271060944
-0.09382469207048416 -0.0032724402844905853 0.00842355377972126
0.06803254038095474 -0.06968004256486893 0.10822734236717224
0.0485808290541172 -0.07958943396806717 -0.018525224179029465
-0.08676667511463165 0.027646567672491074 -0.0025115516036748886
-0.0872517079114914 0.052615560591220856 0.212474524974823
0.05565408989787102 -0.06543218344449997 -0.005334233865141869
-0.09625067561864853 0.03934711962938309 -0.04431251436471939
-0.09656596183776855 0.015305789187550545 -0.006404769606888294
-0.08298861980438232 -0.03198259696364403 0.07984579354524612
0.2679436504840851 0.011304753832519054 -0.07482053339481354
0.16729646921157837 -0.06895028799772263 -0.2327282726764679
0.10978849977254868 -0.06748323887586594 -0.004533527418971062
-0.030309118330478668 -0.052776869386434555 -0.11577968299388885
-0.11207234859466553 0.09853106737136841 0.09716080874204636
0.022542601451277733 -0.06812829524278641 -0.0052138566970825195
0.009279993362724781 -0.10123218595981598 0.3685813546180725
-0.08279205858707428 -0.06702741980552673 0.05277268588542938
0.09341147541999817 -0.08815491199493408 0.03391058370471001
-0.08307419717311859 0.059929169714450836 -0.0550319105386734
-0.11112108081579208 0.06578271090984344 0.02440456673502922
0.02473040670156479 -0.050832245498895645 -0.12571141123771667
0.07393211126327515 -0.05974038690328598 0.05402430519461632
0.052861232310533524 -0.05997081100940704 0.026229113340377808
-0.005767200142145157 -0.061215270310640335 -0.12185888737440109
0.13815896213054657 -0.07554423809051514 0.0008605215698480606
0.04073880612850189 -0.07659459114074707 0.010779661126434803
0.18613889813423157 -0.04859181120991707 -0.025585517287254333
-0.09048917144536972 -0.016752533614635468 -0.03236737847328186
0.10357338935136795 -0.08262056112289429 0.12634779512882233
0.008372116833925247 -0.09496655315160751 0.018268348649144173
0.1891055405139923 -0.06325513124465942 0.08310758322477341
-0.09550721943378448 0.013688884675502777 -0.001639554277062416
-0.09180517494678497 0.031954482197761536 -0.06320817768573761
0.027080774307250977 -0.07456347346305847 -0.005356530658900738
0.014525466598570347 -0.08176711201667786 0.21030345559120178
-0.0717349424958229 0.055234141647815704 0.08352159708738327
-0.04798520728945732 -0.07228732854127884 0.0627293512225151
-0.09348573535680771 0.012767795473337173 -0.0015637408941984177
-0.10786071419715881 0.012075573205947876 0.265485554933548
-0.09430275857448578 -0.00705433264374733 0.06652382761240005
0.24118724465370178 -0.0824989601969719 0.40255045890808105
0.1347334384918213 -0.061702243983745575 0.12712503969669342
0.07134360074996948 -0.06709753721952438 0.04406668245792389
0.026261813938617706 -0.08035939931869507 -0.04342569410800934
-0.08010489493608475 0.010369950905442238 0.07906520366668701
-0.08972638845443726 0.05358411371707916 0.008226418867707253
0.06536373496055603 -0.06823491305112839 -0.036505166441202164
-0.03253680467605591 -0.06810230016708374 0.3254419267177582
-0.09654100239276886 -0.011306372471153736 0.022134236991405487
-0.04911936819553375 0.2648453712463379 0.2642242908477783
0.0936870351433754 -0.07386321574449539 0.035721659660339355
0.043438687920570374 -0.06102024018764496 -0.0759645402431488
0.09143238514661789 -0.09077364951372147 0.19198137521743774
0.02652924694120884 -0.07641912996768951 0.01750067248940468
-0.09941753000020981 0.013528358191251755 -0.005254482850432396
0.04143780097365379 -0.0644625574350357 0.00607305858284235
-0.041954707354307175 -0.06141110509634018 0.06500041484832764
-0.07321827858686447 0.04096727445721626 0.0029143663123250008
-0.025041574612259865 -0.07762274146080017 0.07121433317661285
-0.09693638980388641 0.02182047814130783 -0.0049623651430010796
-0.0740836039185524 0.046814434230327606 -0.007530350238084793
0.03044816665351391 -0.06525977700948715 -0.046393584460020065
-0.10139636695384979 -0.008752115070819855 0.008931456133723259
0.031926557421684265 -0.07684590667486191 -0.08365928381681442
0.2164783477783203 -0.028859056532382965 0.2947414517402649
-0.07007667422294617 0.037733644247055054 0.03152602165937424
0.056984931230545044 -0.07488743960857391 -0.012128753587603569
-0.09748037159442902 0.022222284227609634 0.008658919483423233
-0.09457509964704514 0.018428867682814598 -0.020915132015943527
0.04268656671047211 -0.07687647640705109 -0.007382272742688656
-0.10089347511529922 0.07399369776248932 -0.09479745477437973
-0.09340734779834747 0.04969438537955284 0.007155175320804119
-0.09451139718294144 -0.005622381344437599 0.0311452504247427
-0.09501117467880249 0.017472734674811363 0.00036683306097984314
-0.0967831015586853 0.02676711231470108 0.020083999261260033
-0.08844318985939026 -0.01219354011118412 0.0570707693696022
0.04274311289191246 -0.080678790807724 -0.010500973090529442
-0.09417122602462769 0.019048519432544708 0.0115954065695405
-0.10024885833263397 0.004480069503188133 0.06226484477519989
-0.06128162890672684 -0.05428210273385048 0.1253844052553177
-0.10345257073640823 0.029767204076051712 0.03096870891749859
0.027454502880573273 -0.07149346172809601 0.06888410449028015
0.0522347018122673 -0.08479329198598862 -0.031745459884405136
0.07234060764312744 -0.07371295988559723 0.19515836238861084
-0.09467197954654694 0.10307279974222183 0.25787436962127686
-0.07745720446109772 0.024335402995347977 0.007357524707913399
-0.09562221169471741 0.019278477877378464 0.014799556694924831
-0.05734163522720337 -0.037042196840047836 0.09824283421039581
-0.09485107660293579 0.011146746575832367 0.03054102696478367
-0.08890128135681152 0.0378294363617897 0.13470205664634705
0.024594463407993317 -0.06674586236476898 -0.00497547909617424
0.06099679321050644 -0.059120725840330124 -0.008716844953596592
-0.022598013281822205 -0.08023210614919662 -0.015317540615797043
0.07313095033168793 -0.06461553275585175 0.03285638615489006
-0.08944414556026459 0.02696770802140236 0.017464881762862206
-0.0962095633149147 0.01738487184047699 -0.010027075186371803
-0.09463068097829819 0.022471977397799492 0.02163507044315338
0.054239168763160706 -0.060648705810308456 0.036854442209005356
-0.08334419131278992 0.07072848081588745 0.022763453423976898
0.004379915073513985 -0.04118746146559715 -0.1807425320148468
-0.10209568589925766 0.008133478462696075 -0.02885422855615616
-0.050197504460811615 -0.04716852679848671 0.07904056459665298
-0.024035876616835594 -0.026742616668343544 -0.10873119533061981
0.09177760779857635 -0.058974090963602066 -0.00756662804633379
-0.023230286315083504 -0.03622947633266449 -0.07683870196342468
-0.07922439277172089 0.06505231559276581 0.1652912199497223
-0.09427729994058609 0.1567077785730362 0.19891713559627533
0.007581599522382021 -0.08860203623771667 0.1690024435520172
-0.017502062022686005 -0.06290055811405182 -0.06882326304912567
0.0055219149217009544 -0.04309714213013649 -0.18313492834568024
0.03266619145870209 -0.08384222537279129 -0.0018284728284925222
-0.009532890282571316 -0.06945662945508957 -0.10430646687746048
0.0389973409473896 -0.061868347227573395 0.050571031868457794
-0.09471483528614044 -0.001104899332858622 0.06080739572644234
-0.09360088407993317 0.014458556659519672 -0.004174471832811832
-0.10335440188646317 0.0034225359559059143 -0.005114558152854443
0.2567078471183777 -0.05192135274410248 0.11799795180559158
0.08602672815322876 -0.0717315822839737 0.01944679580628872
-0.08799184113740921 0.03677286207675934 -0.012785833328962326
0.05264889448881149 -0.06999485194683075 0.07057219743728638
-0.0340472012758255 -0.08739469945430756 -0.061199918389320374
-0.09442372620105743 0.08031308650970459 0.11193211376667023
-0.07516491413116455 0.031602926552295685 -0.10014502704143524
0.023457642644643784 -0.06553743034601212 -0.08060789108276367
0.0488889142870903 -0.06321632862091064 -0.06943652033805847
0.029467865824699402 -0.09907310456037521 0.06172174960374832
0.08486795425415039 -0.10080696642398834 0.3023957908153534
0.15009385347366333 -0.06824029237031937 0.1360161155462265
0.04717672988772392 -0.08580666780471802 0.27218344807624817
-0.0967344343662262 0.034704893827438354 -0.04605025425553322
-0.09760238975286484 -0.00484175980091095 0.19111458957195282
0.08415034413337708 -0.08317624777555466 0.20415757596492767
0.29539263248443604 -0.022560440003871918 0.40210145711898804
0.0626298114657402 -0.07149871438741684 -0.014815227128565311
-0.010604042559862137 -0.023669404909014702 -0.275810569524765
0.06630536913871765 -0.06442435830831528 -0.005766560323536396
-0.0028568198904395103 -0.09248190373182297 0.15008792281150818
-0.031162038445472717 -0.05148857831954956 -0.08408847451210022
-0.09903281182050705 -0.009475424885749817 -0.010315904393792152
0.14959032833576202 -0.06534743309020996 0.01795293390750885
0.05480475723743439 -0.07158948481082916 0.03105788119137287
-0.08923642337322235 0.1853317767381668 0.2952973544597626
0.021457841619849205 -0.05807580426335335 0.011079760268330574
-0.027405422180891037 -0.0754125714302063 0.21866756677627563
-0.043549612164497375 0.00818423368036747 -0.05678300932049751
-0.09266513586044312 0.012953875586390495 -0.04071545600891113
0.04657687991857529 -0.07066747546195984 -0.03301218897104263
-0.07086450606584549 0.06458381563425064 0.16799238324165344
0.05550531670451164 -0.08178003877401352 -0.05527211353182793
0.02629471756517887 -0.07565993070602417 -0.028707748278975487
-0.07120641320943832 0.005528333596885204 -0.1549670696258545
0.051147811114788055 -0.07281843572854996 0.0005895327776670456
-0.0679423063993454 0.15617749094963074 0.0012880731374025345
0.08874079585075378 -0.03941681236028671 0.02408771961927414
0.03570626303553581 -0.08475076407194138 -0.022466523572802544
-0.0931818038225174 0.004358362406492233 -0.03337859734892845
-9.479094296693802e-05 -0.08040197193622589 0.02321377396583557
0.034972548484802246 -0.067365363240242 -0.01431238278746605
-0.089386947453022 0.0381585955619812 0.033909641206264496
0.027482274919748306 -0.06167101114988327 -0.00928959995508194
-0.05691996216773987 0.024307595565915108 -0.20907887816429138
0.07450456917285919 -0.07368484139442444 -0.1586075723171234
-0.04425206035375595 -0.08192940801382065 -0.03748277202248573
0.04836667329072952 -0.06423724442720413 -0.2121770977973938
0.028869010508060455 -0.07978533953428268 0.02594318613409996
0.06480449438095093 -0.06579436361789703 -0.015909090638160706
0.040592972189188004 -0.06681665033102036 0.020116053521633148
-0.08435006439685822 0.059371329843997955 0.15588460862636566
-0.007590695284307003 -0.07132504135370255 0.027347926050424576
0.22659741342067719 -0.06195256859064102 0.022034358233213425
-0.09517272561788559 0.19865164160728455 0.3064517676830292
-0.0723411962389946 0.11536520719528198 0.01794319599866867
-0.07573556900024414 -0.023453550413250923 0.11012805998325348
0.0017705783247947693 -0.07486680895090103 -0.011131802573800087
0.10867204517126083 -0.09566601365804672 0.2794555723667145
-0.0309680737555027 -0.07353972643613815 0.22761552035808563
-0.027587737888097763 0.005872923880815506 -0.17218929529190063
-0.0897362157702446 0.1357448250055313 -0.1875906139612198
0.060615189373493195 -0.06194600835442543 -0.015103425830602646
-0.08845379948616028 0.03149256855249405 0.12968669831752777
0.03600483015179634 -0.07182490080595016 0.0052317166700959206
-0.05441731959581375 -0.05744727700948715 -0.04382907599210739
-0.04461001604795456 -0.04984743148088455 0.0454588383436203
0.043392062187194824 -0.07175803929567337 -0.037613119930028915
-0.0740407183766365 0.020960036665201187 -0.006858149543404579
0.04677304998040199 -0.07353992760181427 -0.019835498183965683
-0.07486779987812042 0.0568397082388401 0.020985201001167297
-0.007768991403281689 -0.03220530226826668 -0.15793591737747192
-0.08650603145360947 -0.012061282992362976 0.15765982866287231
0.09848859161138535 -0.07571395486593246 0.19513647258281708
-0.09231699258089066 0.0469382181763649 0.026119079440832138
0.10484476387500763 -0.0967700257897377 0.41958096623420715
0.07970058172941208 -0.07140466570854187 0.021451251581311226
0.07342948019504547 -0.06700237840414047 0.029302220791578293
-0.08830419182777405 0.04069853946566582 0.23306332528591156
-0.009065123274922371 -0.08876616507768631 0.031254224479198456
0.021491430699825287 -0.068956658244133 -0.00670642452314496
0.0869317352771759 -0.07451792061328888 -0.0056002940982580185
0.04223562777042389 -0.06432138383388519 0.003641407936811447
-0.003676157910376787 -0.049759600311517715 -0.10940513759851456
-0.08267257362604141 0.06545142829418182 -0.06878499686717987
-0.09472144395112991 0.03090471401810646 0.04083483666181564
-0.09365417063236237 0.08248857408761978 0.2614337205886841
-0.08776179701089859 -0.021696262061595917 0.0974855050444603
-0.10200118273496628 0.004473953042179346 -0.004197149537503719
0.015926435589790344 -0.06699305772781372 -0.0463782399892807
-0.09326844662427902 0.035836201161146164 0.03520391881465912
-0.10231080651283264 -0.07032579183578491 0.34359583258628845
-0.06092372536659241 0.081297367811203 0.11348888278007507
-0.05998683720827103 0.21941667795181274 -0.04519391432404518
-0.11360437422990799 0.12575921416282654 0.017066732048988342
0.0023375656455755234 -0.07865671813488007 0.017367905005812645
-0.09847106784582138 -0.0022007953375577927 0.020837657153606415
0.03737381473183632 -0.08151954412460327 -0.04415786266326904
-0.10212066769599915 0.03267206624150276 0.017977992072701454
-0.06877157092094421 0.20567449927330017 0.17813940346240997
-0.07543978840112686 0.025414245203137398 -0.15302327275276184
0.03692455589771271 -0.07791310548782349 0.049272794276475906
0.06706137955188751 -0.062038298696279526 -0.012174516916275024
-0.09493590891361237 0.04833013564348221 0.08061300963163376
-0.0911165103316307 0.05261475220322609 0.20311474800109863
0.05287386476993561 -0.07344216853380203 -0.0064799049869179726
0.04040740802884102 -0.06391112506389618 0.0032446940895169973
-0.08507633209228516 0.22561007738113403 0.25717663764953613
-0.09532438218593597 0.03829360008239746 -0.02613787353038788
-0.06801899522542953 0.05372650921344757 -0.002635406330227852
-0.09719045460224152 0.06976670026779175 0.19314202666282654
-0.0898512601852417 0.027516834437847137 0.03418702632188797
-0.10229805111885071 0.010744637809693813 -0.011334337294101715
0.04305082559585571 -0.08213263005018234 0.16431009769439697
0.028162116184830666 -0.09374582022428513 -0.03308494761586189
-0.09288911521434784 0.192442387342453 0.38729724287986755
0.18615475296974182 -0.06593267619609833 -0.11381568014621735
0.06324975192546844 -0.07410729676485062 -0.039267245680093765
-0.030570149421691895 -0.0841391533613205 -0.043442487716674805
0.044337306171655655 -0.06361757963895798 0.013382600620388985
-0.06927882134914398 0.04226761311292648 -0.06996272504329681
-0.05880919471383095 -0.05759750306606293 0.20484134554862976
0.08685556054115295 -0.07456323504447937 -0.01609567180275917
0.040239762514829636 -0.07182875275611877 0.0051752179861068726
-0.08171350508928299 0.08394011855125427 0.16336527466773987
0.014624316245317459 -0.06737624853849411 -0.015709012746810913
0.05095013603568077 -0.08072061836719513 -0.039364829659461975
-0.036628518253564835 -0.07232103496789932 0.20273584127426147
0.08890222012996674 -0.08056401461362839 0.05473616346716881
-0.07704893499612808 0.23266535997390747 0.2249480038881302
-0.09515659511089325 0.011659006588160992 -0.006060997024178505
0.041257552802562714 -0.05724587291479111 -0.17078876495361328
-0.11009733378887177 0.04688608646392822 -0.05257360264658928
-0.03735240921378136 -0.05984806269407272 0.057912301272153854
0.03538611903786659 -0.06683997809886932 -0.01807544194161892
-0.03393023833632469 -0.08219072967767715 -0.06494411081075668
-0.08961115032434464 0.1284770369529724 0.04171859472990036
-0.09564731270074844 0.09208139032125473 -0.13790640234947205
-0.10939103364944458 0.09441366046667099 0.20983350276947021
-0.09408896416425705 -0.0009421445429325104 0.08446452021598816
-0.06623034179210663 0.20256558060646057 0.13224411010742188
-0.08487717062234879 -0.07429683953523636 0.12617428600788116
-0.05506538227200508 -0.046762533485889435 0.03221619874238968
-0.10284198820590973 0.038284800946712494 0.0465557686984539
-0.0007379315793514252 -0.06283065676689148 0.05586228519678116
0.06588973850011826 -0.07569693773984909 0.08364858478307724
0.07139209657907486 -0.07278025150299072 0.017193259671330452
-0.07445268332958221 -0.014576583169400692 -0.08036783337593079
0.11610262840986252 -0.06211775913834572 0.08879749476909637
0.1992224156856537 -0.06003701686859131 0.00386029202491045
0.029761407524347305 -0.0794539749622345 0.04123242199420929
-0.08997368067502975 0.040561921894550323 0.018618687987327576
-0.05233438313007355 -0.08227847516536713 0.13005341589450836
-0.09683330357074738 -0.042206648737192154 0.005093744024634361
-0.09284462034702301 0.010509643703699112 0.08174427598714828
0.031026476994156837 -0.08282478153705597 0.10190355032682419
-0.06777895241975784 0.04205835983157158 -0.11604675650596619
0.03232564777135849 -0.060557879507541656 0.03406311944127083
-0.04498432204127312 -0.03824673593044281 -0.04692791402339935
0.2174464911222458 -0.0794854462146759 0.21893027424812317
-0.0959959402680397 0.09637647867202759 0.39516183733940125
-0.05094379186630249 0.016324268653988838 -0.19519749283790588
0.04464734345674515 -0.06718865036964417 0.007726971060037613
0.03198267146945 -0.05656307563185692 -0.054230108857154846
-2.1696090698242188e-05 -0.012997307814657688 -0.3205386698246002
0.03007092885673046 -0.06911590695381165 0.0005630003288388252
0.09742441773414612 -0.07196388393640518 0.03980917111039162
0.02260926179587841 -0.08176983147859573 -0.05996408686041832
0.2753889858722687 0.03348696604371071 -0.05988616496324539
0.03693419694900513 -0.08225421607494354 -0.027766738086938858
-0.06678899377584457 0.02668995037674904 -0.09116636961698532
0.02802402153611183 -0.07421304285526276 -0.019733097404241562
0.020188821479678154 -0.07987510412931442 -0.020159663632512093
0.13131609559059143 -0.07010485231876373 0.05489201098680496
0.02708262950181961 -0.05856569483876228 -0.010592511855065823
-0.09810575842857361 0.01857035420835018 0.30079030990600586
-0.08273724466562271 0.03246361389756203 0.06205937638878822
-0.005004211328923702 -0.04129515588283539 -0.09462457150220871
0.06274822354316711 -0.0619991160929203 -0.06070142984390259
0.059879399836063385 -0.06257389485836029 -0.011960086412727833
0.1003127247095108 -0.08240487426519394 -0.01591668464243412
-0.06797727197408676 0.005041033029556274 0.008153456263244152
0.04330664873123169 -0.06909190863370895 0.08104566484689713
-0.09594203531742096 0.003255825489759445 -0.04044615477323532
-0.09664764255285263 0.02597184292972088 0.18801139295101166
0.025872984901070595 -0.059669770300388336 -0.02502315491437912
0.03543190658092499 -0.08306372910737991 0.17040762305259705
-0.0763482004404068 -0.05857491120696068 -0.0802832618355751
0.04823493957519531 -0.08616484701633453 0.1361234188079834
-0.09058827906847 0.08752637356519699 0.35805922746658325
0.04280561953783035 -0.0631776973605156 0.007963946089148521
-0.09640835225582123 0.001539075281471014 0.07540172338485718
0.08165284246206284 -0.06202467158436775 0.09324342012405396
-0.027225323021411896 -0.06488706171512604 0.03920481353998184
-0.09157665818929672 -0.08237317204475403 0.3422519564628601
-0.07441596686840057 0.03151610493659973 -0.06314493715763092
-0.02166333608329296 -0.0536261647939682 0.024779170751571655
0.024974826723337173 -0.0618191659450531 -0.0066200364381074905
-0.08554060757160187 0.12134810537099838 0.3640836477279663
-0.0004978924989700317 -0.09145625680685043 -0.024761000648140907
-0.07442890107631683 0.01748494803905487 -0.0715251937508583
-0.0915842279791832 0.012873318046331406 0.010384714230895042
-0.09236487746238708 0.09418197721242905 0.05906471610069275
0.03785235434770584 -0.07565339654684067 -0.007049562409520149
0.024297408759593964 -0.08784131705760956 0.2125454545021057
0.24329343438148499 0.013592065311968327 0.24480324983596802
-0.05568365752696991 0.13366198539733887 0.09017319977283478
-0.09088955819606781 0.047028787434101105 0.020382072776556015
0.02314491756260395 -0.05290168151259422 0.0759001076221466
0.030834320932626724 -0.09387794137001038 0.30398014187812805
-0.047706566751003265 -0.06288457661867142 0.055961813777685165
0.04106658697128296 -0.07885816693305969 -0.0048138112761080265
0.021597454324364662 -0.08647316694259644 0.13003244996070862
0.016155948862433434 -0.0702965259552002 0.04196526110172272
0.1944299191236496 -0.06201709434390068 0.054809510707855225
-0.003892958164215088 -0.1049768328666687 0.40607768297195435
-0.09932074695825577 0.017852332442998886 -0.0019809529185295105
0.057679563760757446 -0.06571105867624283 -0.005888801533728838
-0.08999548852443695 -0.01533255074173212 0.07961765676736832
-0.0714416429400444 0.07854088395833969 0.17838339507579803
-0.007332928478717804 -0.07010429352521896 -0.07093736529350281
0.15524068474769592 -0.06597238779067993 0.14128220081329346
0.024142242968082428 -0.07832539081573486 -0.16768406331539154
0.2446005642414093 -0.06461063027381897 0.047546789050102234
0.0551828071475029 -0.07509830594062805 -0.023062046617269516
0.015270890668034554 -0.08766717463731766 0.062317728996276855
-0.06314893066883087 0.07382024824619293 -0.18376190960407257
-0.09506221115589142 0.042156882584095 0.01686829701066017
0.02773135155439377 -0.07509160041809082 0.215638667345047
0.013945045880973339 -0.06185108423233032 -0.07375381886959076
0.13096530735492706 -0.08567862212657928 -0.18215914070606232
-0.042203884571790695 -0.06658612936735153 0.06586587429046631
0.017643829807639122 -0.05035735294222832 -0.12129565328359604
0.057959072291851044 -0.06945215910673141 -0.0158330500125885
0.023776549845933914 -0.06994811445474625 0.03819495439529419
0.14130446314811707 -0.06860335171222687 0.03603973984718323
0.005579985212534666 -0.08111416548490524 0.006173283327370882
-0.07330125570297241 -0.006101794540882111 0.0999678373336792
-0.0881187915802002 0.02312682382762432 0.060795437544584274
-0.09557852149009705 0.014162782579660416 -0.003673385828733444
0.2750414311885834 0.004332351498305798 -0.01964966580271721
-0.09661468118429184 -0.0014337226748466492 -0.04334221035242081
0.01854080706834793 -0.07440891861915588 0.1126880943775177
-0.015259596519172192 -0.09063698351383209 0.2373989075422287
-0.08129353821277618 0.14802956581115723 0.4004089832305908
-0.09399835020303726 0.031886108219623566 0.0027114907279610634
0.054485246539115906 -0.08336161077022552 -0.0025122705847024918
-0.030143385753035545 -0.043253034353256226 0.2566249966621399
-0.06462889909744263 0.04799000918865204 -0.0523582361638546
0.05842713639140129 -0.0672120675444603 -0.011393317021429539
-0.05295892059803009 -0.07072781771421432 0.04467269405722618
-0.09232819080352783 -0.001089614350348711 0.04543121159076691
-0.08329348266124725 0.08346419781446457 0.10083454847335815
0.05623437836766243 -0.07835374772548676 -0.06950608640909195
-0.07287999987602234 -0.009484928101301193 -0.024392662569880486
0.0743861198425293 -0.07049990445375443 0.025521155446767807
-0.09765277802944183 0.013917963951826096 0.12906457483768463
-0.07768860459327698 -0.033125948160886765 0.36692672967910767
-0.005197795107960701 -0.09242407977581024 -0.08669780194759369
-0.0918087512254715 0.0020835064351558685 0.11637438833713531
0.03143388032913208 -0.07179718464612961 0.005568820051848888
-0.09097601473331451 0.034615833312273026 0.12142569571733475
-0.0772552639245987 0.023481100797653198 -0.04490967467427254
0.026349904015660286 -0.08307508379220963 0.07109273970127106
0.05116448551416397 -0.07627323269844055 -0.05373971536755562
0.13447526097297668 -0.07999971508979797 0.2488139569759369
-0.027332739904522896 -0.06504864245653152 0.06093226745724678
0.12365134805440903 -0.06894543021917343 -0.0006388779729604721
0.04316803440451622 -0.06407973170280457 0.004586840979754925
-0.10347893834114075 0.03372517600655556 0.33154067397117615
-0.07124893367290497 0.00984070636332035 -0.0637407973408699
-0.05475875735282898 -0.061760786920785904 0.1313944011926651
0.1457163691520691 -0.06871052086353302 0.0030365348793566227
0.030887939035892487 -0.06588497012853622 0.00926299300044775
-0.08788026124238968 -0.05434663966298103 0.0043620457872748375
0.028251126408576965 -0.061243318021297455 0.01607588306069374
-0.09326492249965668 0.017792221158742905 -0.005004066042602062
-0.08324439823627472 0.044456906616687775 -0.017914369702339172
-0.08770043402910233 0.033690355718135834 -0.0019534179009497166
0.17878010869026184 -0.059964604675769806 0.19751064479351044
-0.03985968604683876 0.3135402202606201 0.3898158073425293
0.011860603466629982 -0.0725875273346901 -0.0028476587031036615
-0.0874791294336319 0.04888329654932022 0.005366292782127857
0.046539243310689926 -0.06780721992254257 0.01560400053858757
-0.09523967653512955 0.01645185425877571 -0.005127144977450371
-0.10503320395946503 0.055498480796813965 0.2473011463880539
-0.09850343316793442 0.019269932061433792 0.014610311947762966
0.15052321553230286 -0.08596478402614594 0.4107741415500641
-0.11064689606428146 0.0787113606929779 0.406782865524292
-0.05813007056713104 0.13856026530265808 -0.0059670149348676205
-0.09827311336994171 0.004206512123346329 0.079099640250206
0.07985732704401016 -0.07920578867197037 0.21722157299518585
0.05883166939020157 -0.06160392612218857 -0.007491322234272957
-0.09957600384950638 0.003947775810956955 -0.021161915734410286
-0.09342742711305618 0.010199012234807014 -0.0006786976009607315
-0.09958212822675705 0.022779228165745735 0.11430571973323822
-0.11138864606618881 0.02865709364414215 0.38865959644317627
0.07540193945169449 -0.07057381421327591 0.014717061072587967
-0.04535951465368271 -0.06458373367786407 0.01680610701441765
-0.0906246155500412 -0.013568110764026642 0.05929239094257355
-0.0901290699839592 -0.0029640435241162777 0.006670968607068062
0.19352249801158905 -0.052283987402915955 -0.0008893472841009498
-0.09413100779056549 0.00981179066002369 -0.003348818514496088
-0.09888099879026413 0.024585211649537086 -0.08690683543682098
0.07075782120227814 -0.09209886193275452 0.3892561197280884
0.07098053395748138 -0.050855088979005814 -0.22177940607070923
-0.08882446587085724 0.11888604611158371 0.12411033362150192
-0.09767957776784897 0.011666862294077873 0.08562549203634262
-0.06548231095075607 0.0023033320903778076 -0.13767792284488678
-0.027865469455718994 -0.012502295896410942 -0.1763237863779068
-0.001378329936414957 -0.08624626696109772 0.0598568469285965
-0.08453816175460815 -0.03129006177186966 0.07145263999700546
-0.0900086909532547 0.033324941992759705 0.05784929171204567
-0.0903058648109436 0.16301462054252625 -0.07739584147930145
-0.07731693238019943 0.04269634187221527 0.0920206680893898
-0.09828604757785797 0.007948307320475578 0.021759506314992905
-0.0655578151345253 -0.06786777079105377 0.0699261724948883
-0.09236015379428864 0.03342364728450775 -0.009853103198111057
-0.0356132835149765 -0.06321308016777039 0.04571312293410301
0.028103455901145935 -0.06337666511535645 -0.02153077721595764
-0.0031766672618687153 -0.09012171626091003 0.17977525293827057
-0.09531236439943314 0.020654410123825073 0.29932573437690735
0.008153579197824001 -0.08880151808261871 0.0018037538975477219
-0.09890411049127579 0.1278112381696701 0.1857098489999771
-0.08517683297395706 -0.011897096410393715 -0.05572064220905304
-0.07214917242527008 0.18376249074935913 0.028526101261377335
0.15882933139801025 -0.06809088587760925 0.07624562829732895
-0.09621027112007141 -0.006609609350562096 0.002908976748585701
-0.0731295794248581 0.2232396900653839 0.0010535866022109985
-0.090977244079113 0.17712177336215973 0.29621198773384094
0.1656881719827652 -0.061593689024448395 0.17295916378498077
-0.08558651804924011 0.07851184904575348 0.14194077253341675
-0.05554630607366562 -0.031494542956352234 -0.07136142253875732
0.029513439163565636 -0.06817676872015 -0.006662230938673019
0.029923133552074432 -0.08861486613750458 -0.045684367418289185
-0.10055553913116455 0.0035643510054796934 -0.03448208421468735
-0.09055984765291214 0.009162386879324913 0.15170475840568542
-0.09854870289564133 0.1565992832183838 0.22216440737247467
0.01967536099255085 -0.0742541253566742 0.019948139786720276
-0.0921136736869812 -0.01358656957745552 -0.02479521557688713
0.027416568249464035 -0.07221262156963348 0.0012320391833782196
-0.03196876496076584 -0.07256864011287689 0.08848227560520172
-0.09477464109659195 0.019653216004371643 -0.004058199003338814
-0.03499931842088699 -0.04897802695631981 -0.07162221521139145
-0.09711422026157379 -0.004128595814108849 -0.05712732672691345
0.051754120737314224 -0.07291404157876968 -0.01887306198477745
0.11626224219799042 -0.0695432648062706 -0.00379275344312191
-0.07526751607656479 0.09425750374794006 0.09159034490585327
-0.10264313220977783 0.008520199917256832 0.04480452835559845
-0.09128629416227341 0.02446202002465725 0.0010810373350977898
-0.08675698190927505 0.07686538249254227 0.18648990988731384
0.01605176366865635 -0.07393231242895126 -0.0023646531626582146
-0.02107818052172661 -0.0482155904173851 -0.14392507076263428
0.11532681435346603 -0.06047684699296951 -0.00869118794798851
0.24907048046588898 -0.012621292844414711 0.051606155931949615
-0.07041726261377335 0.014206215739250183 -0.08091778308153152
-0.0016520395874977112 -0.07657529413700104 -0.08668122440576553
0.19214048981666565 -0.05847058445215225 0.07668734341859818
-0.0869697779417038 -0.01819278672337532 0.024332258850336075
-0.009459733963012695 -0.0808902308344841 -0.07104518264532089
-0.007482562214136124 -0.07757724821567535 -0.06241796165704727
0.10697388648986816 -0.07806050777435303 -0.06814476102590561
-0.09694056212902069 -0.00332062691450119 -0.016969989985227585
-0.08576028048992157 0.02185479924082756 0.06325168907642365
0.2614048421382904 -0.07672850787639618 0.32883408665657043
-0.10691675543785095 0.02434775047004223 0.05473598465323448
-0.1003521978855133 0.15356482565402985 0.07722371816635132
0.005816422402858734 -0.07768165320158005 -0.048981402069330215
-0.0627821534872055 -0.02936602756381035 -0.06216495856642723
-0.09206654876470566 0.011550093069672585 -0.005934705957770348
0.025915279984474182 -0.08916287124156952 0.23852267861366272
0.07401677966117859 -0.08270678669214249 0.19161729514598846
0.06260938942432404 -0.07389221340417862 -0.015311128459870815
0.08721902966499329 -0.0636507123708725 0.09900979697704315
-0.11473798006772995 0.09409728646278381 0.1235199123620987
-0.03219163045287132 0.027265526354312897 -0.27597421407699585
0.05945200473070145 -0.0669347494840622 -0.0376373827457428
-0.013434603810310364 -0.01592559926211834 -0.16395439207553864
-0.0862734392285347 0.04049712419509888 0.01355113834142685
0.09338890016078949 -0.09851278364658356 0.0051740612834692
-0.06839551031589508 0.10548095405101776 -0.03315434604883194
-0.038158927112817764 -0.037624455988407135 -0.0909702479839325
-0.08467262238264084 0.0330069325864315 -0.006072394549846649
0.17684540152549744 -0.07876966893672943 0.17490188777446747
0.04615507274866104 -0.06385809183120728 0.015634041279554367
-0.08906374871730804 0.2134830504655838 0.2743929326534271
0.0154323261231184 -0.07575277239084244 0.0048644463531672955
-0.1114186942577362 -0.028209611773490906 0.0696808472275734
0.04285489022731781 -0.059867531061172485 -0.0005538137629628181
-0.0989699736237526 0.007574340328574181 0.023070093244314194
-0.04626709595322609 -0.017066296190023422 -0.1321442574262619
0.042178619652986526 -0.062124840915203094 0.017268497496843338
0.19539964199066162 -0.07440990954637527 0.31677648425102234
-0.10614469647407532 0.044277116656303406 0.13844743371009827
-0.07864447683095932 0.1002078503370285 -0.23546728491783142
-0.08120088279247284 0.11773711442947388 -0.16321349143981934
0.025477135553956032 -0.07489454001188278 0.01882818154990673
-0.08400171250104904 0.14211301505565643 0.1852508783340454
0.03911251947283745 -0.08366326987743378 0.21908915042877197
-0.0017372793518006802 -0.07789598405361176 -0.0099535146728158
-0.02325541526079178 -0.07993696630001068 0.08649873733520508
-0.09123130142688751 -0.0002765841782093048 0.09669941663742065
-0.09790816158056259 -0.059016697108745575 0.21113821864128113
-0.10161107033491135 0.017138047143816948 0.08945219963788986
-0.09338035434484482 0.1592240035533905 -0.16354340314865112
-0.07605849206447601 -0.003124227747321129 0.05300522223114967
-0.09751701354980469 0.01811848022043705 -0.010514642111957073
-0.07774288952350616 0.2187054455280304 0.08539911359548569
-0.005546711850911379 -0.05986008048057556 -0.07241041213274002
-0.06567663699388504 -0.015880413353443146 -0.07595374435186386
-0.05332973971962929 -0.09953033924102783 0.22458919882774353
-0.10297764092683792 -0.008848979137837887 0.15051794052124023
-0.09334853291511536 0.1620471477508545 0.3407730460166931
-0.10167926549911499 0.005452620796859264 0.2369714379310608
0.024125777184963226 -0.07332653552293777 0.044161830097436905
0.07788962870836258 -0.06556400656700134 0.060834720730781555
0.04923698306083679 -0.05682232975959778 -0.06852135807275772
-0.09493294358253479 0.19075320661067963 0.12337207049131393
0.008070547133684158 -0.07054097950458527 0.049735136330127716
-0.08422061055898666 -0.07978369295597076 0.4037151038646698
0.055478986352682114 -0.07263542711734772 -0.016815252602100372
0.1019604355096817 -0.08305204659700394 0.21596896648406982
-0.06111376732587814 -0.056070275604724884 0.06533542275428772
0.026296166703104973 -0.07114598900079727 0.027696317061781883
0.04034343734383583 -0.06603658944368362 0.007890738546848297
-0.08234111964702606 0.051351793110370636 -0.09886302053928375
-0.04943576082587242 -0.08026241511106491 0.11230065673589706
0.14888009428977966 -0.06527377665042877 0.0927351713180542
-0.07019408047199249 0.034221939742565155 -0.058562271296978
0.020437948405742645 -0.07302878797054291 0.04566430300474167
0.1004420816898346 -0.07296231389045715 -0.05177733302116394
-0.006654633209109306 -0.07995124161243439 -0.0352313369512558
-0.09545625746250153 0.015603477135300636 -0.004611917305737734
0.062077395617961884 -0.062164198607206345 -0.006850529927760363
-0.09195169806480408 -0.006289606913924217 0.05202686786651611
0.10260552912950516 -0.07246439158916473 0.05063195526599884
0.04309539496898651 -0.05826549604535103 0.02037806808948517
-0.10312992334365845 0.026889238506555557 0.21152950823307037
-0.08896563947200775 0.007635017856955528 0.0508170947432518
-0.09023314714431763 0.0048096394166350365 0.07808948308229446
0.0916544571518898 -0.05463578179478645 0.08830775320529938
0.06213671714067459 -0.08650629222393036 -0.05625530332326889
-0.10280464589595795 0.0012599709443747997 0.37839561700820923
-0.09390681982040405 0.02056846208870411 0.01398361474275589
-0.09500075876712799 0.04490815848112106 0.27639031410217285
0.12007896602153778 -0.0705980658531189 0.01510908454656601
0.16235683858394623 -0.06301140785217285 -0.0010843519121408463
-0.09667710214853287 0.0008422769606113434 0.006294150371104479
-0.055529430508613586 -0.01578502729535103 -0.021117176860570908
-0.0851084291934967 0.18876630067825317 0.23529702425003052
0.02024867571890354 -0.06905937939882278 0.06693249940872192
0.08738769590854645 -0.07228560745716095 0.08061397820711136
-0.002769598737359047 -0.09698715060949326 0.33292198181152344
-0.09734086692333221 0.043946266174316406 0.020459212362766266
0.04737316817045212 -0.07674376666545868 -0.009847504086792469
-0.0705985426902771 0.060880567878484726 0.020698964595794678
0.06632466614246368 -0.0818495899438858 0.05828860402107239
0.034783728420734406 -0.0711376816034317 0.020956875756382942
0.010313845239579678 -0.0899147093296051 -0.02098112180829048
0.02353835478425026 -0.07410942763090134 0.037647224962711334
-0.08029180020093918 0.17056959867477417 0.05899550020694733
-0.07713890075683594 -0.05024709552526474 0.17348147928714752
0.047222208231687546 -0.06833034753799438 -0.012615976855158806
-0.024610286578536034 -0.09303820878267288 -0.020679021254181862
-0.007773211691528559 -0.058135200291872025 -0.09647157788276672
-0.09417609125375748 0.016394367441534996 -0.005148784257471561
-0.0947951078414917 0.02493949979543686 0.22467735409736633
-0.09703503549098969 -0.0040032994002103806 -0.022762995213270187
-0.09625165164470673 0.050228506326675415 0.10723108798265457
0.012537853792309761 -0.07593974471092224 -0.05382682383060455
0.06577199697494507 -0.06146305054426193 -0.023156384006142616
0.1188221126794815 -0.06972057372331619 0.13163815438747406
0.13693690299987793 -0.08288824558258057 0.1411009579896927
-0.015601458959281445 -0.08662694692611694 0.04337630420923233
-0.10506990551948547 0.02577395923435688 0.02735787257552147
-0.0003554001450538635 -0.06073196977376938 -0.10489000380039215
-0.08403435349464417 -0.06657838076353073 0.26061415672302246
0.04459803178906441 -0.06782246381044388 0.05114489048719406
0.047186434268951416 -0.07085506618022919 0.014034796506166458
-0.049803607165813446 0.0013835830613970757 -0.10399243235588074
-0.0405605174601078 -0.06495235115289688 0.05308981239795685
-0.10604272782802582 0.07915318757295609 0.36750859022140503
0.01936253160238266 -0.07789076864719391 0.004010207951068878
-0.03926567733287811 -0.03306517377495766 0.011841276660561562
-0.09508566558361053 0.0434601753950119 0.0194619782269001
-0.08516808599233627 -0.02314472571015358 0.09402019530534744
0.165339857339859 -0.06581435352563858 -0.003125147894024849
0.017440583556890488 -0.07379074394702911 -0.03460391238331795
-0.02123882621526718 0.28706344962120056 -0.03382275253534317
-0.024799570441246033 -0.07744669914245605 -0.00757796224206686
0.03328105807304382 -0.05445076525211334 -0.005886011756956577
-0.004764100071042776 -0.09615214169025421 0.28648611903190613
-0.09702743589878082 0.02129853516817093 0.009576352313160896
0.04402371123433113 -0.06354712694883347 0.021430199965834618
0.32170647382736206 0.006440162658691406 0.24586166441440582
0.05171038210391998 -0.08600517362356186 -0.11482948809862137
-0.09692539274692535 0.012146037071943283 0.06342147290706635
0.06293421238660812 -0.05386655405163765 0.020451650023460388
0.006938803941011429 -0.08278748393058777 0.22212664783000946
-0.0656619518995285 0.13144156336784363 0.04165901243686676
0.07056020200252533 -0.10012523084878922 0.3119005858898163
0.032127488404512405 -0.06404401361942291 0.11532440036535263
-3.0195340514183044e-05 -0.07547936588525772 -0.057433366775512695
0.0655825138092041 -0.06698022037744522 0.005702471360564232
-0.09493110328912735 0.011574717238545418 -0.006891430355608463
0.04127860069274902 -0.06149711459875107 -0.004167569801211357
-0.09381192922592163 0.016259191557765007 -0.008377160876989365
-0.06903861463069916 0.01205155998468399 -0.1573057919740677
-0.02719823271036148 -0.08639073371887207 -0.061563532799482346
0.11582133173942566 -0.09305146336555481 0.2774786651134491
-0.08061497658491135 0.051681999117136 0.11080405116081238
-0.08815591782331467 0.0380978137254715 0.017474111169576645
-0.09594085812568665 0.01720287650823593 0.028354406356811523
